25
73
-47.2345 -14.3529 -7.38855
-47.3879 -14.4489 -7.20213
-47.62 -14.4586 -6.96217
-47.9399 -14.3697 -6.66275
-48.3556 -14.1693 -6.2983
-48.8739 -13.8416 -5.86367
-49.5 -13.3696 -5.35415
-50.2357 -12.7378 -4.76548
-51.1159 -11.8882 -4.11899
-52.1192 -10.8176 -3.40054
-53.224 -9.51424 -2.59785
-54.4177 -7.95173 -1.70911
-55.7397 -6.01851 -0.785913
-57.1041 -3.77365 0.221119
-58.4918 -1.29596 1.29411
-59.9039 1.45653 2.40155
-61.2811 4.4043 3.58522
-62.6462 7.64611 4.77186
-63.9356 11.0696 6.02445
-65.1642 14.756 7.26645
-66.2901 18.6141 8.54534
-67.3142 22.6654 9.81734
-68.2263 26.8679 11.081
-69.0149 31.1892 12.3477
-69.6915 35.6292 13.5672
-70.2398 40.1641 14.759
-70.655 44.7786 15.9218
-70.9276 49.4814 17.0322
-71.034 54.2815 18.083
-70.9674 59.1478 19.093
-70.7166 64.0711 20.0604
-70.2622 69.0497 20.9818
-69.5534 74.1079 21.8524
-68.5991 79.1995 22.6878
-67.3835 84.311 23.4879
-65.8934 89.4253 24.2531
-64.0696 94.5571 24.979
-61.9034 99.6762 25.6701
-59.4626 104.709 26.3335
-56.7957 109.609 26.9712
-53.9478 114.342 27.5842
-51.0779 118.832 28.1772
-48.2993 123.044 28.7545
-45.6474 126.987 29.3156
-43.3206 130.611 29.8639
-41.1828 133.992 30.392
-39.257 137.137 30.8986
-37.5766 140.052 31.3762
-36.0094 142.782 31.8285
-34.6251 145.318 32.244
-33.3179 147.687 32.6338
-32.1143 149.889 32.9852
-30.9871 151.93 33.3133
-29.9015 153.82 33.6172
-28.8938 155.552 33.8975
-27.9397 157.136 34.1587
-26.9812 158.582 34.4095
-26.1144 159.88 34.6359
-25.3376 161.036 34.8385
-24.5527 162.067 35.0339
-23.7706 162.979 35.213
-23.0001 163.777 35.368
-22.2482 164.467 35.5002
-21.5298 165.054 35.611
-20.8553 165.543 35.7021
-20.2295 165.944 35.7751
-19.6548 166.264 35.8335
-19.1257 166.511 35.8821
-18.6192 166.7 35.9165
-17.8659 166.868 35.939
-49.1813 -13.3168 -9.73605
-49.0486 -13.9985 -9.66783
-49.0573 -14.2727 -9.56418
-49.1353 -14.4558 -9.42365
-49.2818 -14.5567 -9.23535
-49.5042 -14.5724 -8.99297
-49.8117 -14.4889 -8.69053
-50.2127 -14.2907 -8.32241
-50.714 -13.9627 -7.88341
-51.3205 -13.4879 -7.36875
-52.0347 -12.8479 -6.77416
-52.888 -11.9895 -6.11795
-53.8653 -10.9021 -5.39067
-54.9417 -9.57823 -4.57811
-56.1048 -7.9878 -3.67823
-57.3934 -6.02094 -2.74086
-58.7241 -3.71489 -1.71953
-60.0734 -1.15657 -0.630468
-61.4416 1.67871 0.494353
-62.7676 4.71496 1.69622
-64.0758 8.04016 2.90276
-65.3007 11.5514 4.17528
-66.4596 15.3164 5.43899
-67.5096 19.2533 6.73877
-68.4533 23.3743 8.03358
-69.2824 27.6408 9.31795
-69.9844 32.0205 10.6051
-70.5745 36.5075 11.8459
-71.0368 41.0827 13.0553
-71.3664 45.7307 14.234
-71.5569 50.4555 15.3605
-71.5848 55.2707 16.4227
-71.442 60.1456 17.4432
-71.1179 65.0713 18.4201
-70.5959 70.0429 19.3519
-69.82 75.0922 20.2312
-68.8001 80.1714 21.0754
-67.5208 85.2669 21.8844
-65.9694 90.3618 22.6583
-64.0944 95.4656 23.3935
-61.8793 100.555 24.0927
-59.3999 105.551 24.7641
-56.7075 110.41 25.4095
-53.852 115.095 26.03
-50.9875 119.535 26.6296
-48.22 123.7 27.2131
-45.581 127.598 27.7799
-43.2472 131.19 28.3331
-41.0971 134.541 28.8656
-39.1445 137.663 29.3763
-37.4267 140.559 29.8576
-35.819 143.272 30.3133
-34.3852 145.793 30.7326
-33.0311 148.148 31.1257
-31.7789 150.337 31.4808
-30.6061 152.365 31.8124
-29.4766 154.241 32.1192
-28.429 155.962 32.4023
-27.4371 157.534 32.6661
-26.4497 158.967 32.9183
-25.5569 160.254 33.146
-24.7567 161.4 33.3498
-23.9662 162.419 33.5461
-23.176 163.321 33.725
-22.3972 164.11 33.8799
-21.6397 164.791 34.012
-20.9145 165.371 34.1228
-20.2344 165.855 34.2138
-19.6046 166.25 34.2867
-19.0254 166.565 34.3457
-18.4908 166.809 34.394
-17.9792 166.995 34.4282
-17.1868 167.163 34.4506
-51.1296 -13.2385 -11.7798
-51.0165 -13.8726 -11.7114
-51.0221 -14.1592 -11.6069
-51.0924 -14.3506 -11.4628
-51.2312 -14.4608 -11.2726
-51.4433 -14.4836 -11.0278
-51.7379 -14.4051 -10.7224
-52.1231 -14.2099 -10.3506
-52.6054 -13.8829 -9.90728
-53.1893 -13.4076 -9.38753
-53.878 -12.7638 -8.78705
-54.6992 -11.9017 -8.12114
-55.6452 -10.8021 -7.38505
-56.687 -9.46294 -6.56266
-57.8128 -7.8518 -5.65188
-59.0602 -5.85907 -4.69999
-60.349 -3.50736 -3.66437
-61.6523 -0.883984 -2.55904
-62.9702 2.01926 -1.41681
-64.2399 5.12757 -0.19649
-65.4871 8.52218 1.02997
-66.6448 12.1061 2.3227
-67.7323 15.9377 3.60817
-68.7058 19.9412 4.92911
-69.5688 24.1227 6.24678
-70.3153 28.445 7.5521
-70.9314 32.8763 8.85992
-71.4352 37.4057 10.1222
-71.8126 42.0168 11.3493
-72.0577 46.6941 12.5442
-72.1671 51.4381 13.6869
-72.1179 56.2657 14.7608
-71.9003 61.1471 15.7918
-71.5037 66.0738 16.7784
-70.9144 71.0383 17.7206
-70.0717 76.0783 18.6089
-68.9866 81.1445 19.4621
-67.6443 86.2234 20.28
-66.0329 91.298 21.0629
-64.1081 96.3727 21.8073
-61.8472 101.43 22.5149
-59.3326 106.389 23.1943
-56.6179 111.205 23.8475
-53.7558 115.842 24.4755
-50.8943 120.235 25.0818
-48.1328 124.355 25.6716
-45.4995 128.213 26.2441
-43.153 131.773 26.8021
-40.9862 135.097 27.3392
-39.0048 138.196 27.854
-37.2506 141.072 28.3391
-35.6044 143.767 28.7984
-34.1254 146.273 29.2215
-32.7285 148.612 29.6179
-31.4326 150.786 29.9768
-30.2191 152.8 30.3119
-29.0503 154.663 30.6217
-27.967 156.37 30.9076
-26.9409 157.93 31.174
-25.9271 159.351 31.4276
-25.0104 160.626 31.6566
-24.1889 161.761 31.8616
-23.3937 162.769 32.0588
-22.5945 163.66 32.2376
-21.8076 164.441 32.3924
-21.0437 165.114 32.5244
-20.3122 165.687 32.6352
-19.625 166.165 32.7261
-18.9891 166.555 32.799
-18.4043 166.866 32.8585
-17.8653 167.106 32.9066
-17.3492 167.289 32.9406
-16.5068 167.459 32.9629
-53.1234 -12.972 -13.8213
-53.0223 -13.5891 -13.7527
-53.0282 -13.8807 -13.6481
-53.0912 -14.0833 -13.5008
-53.223 -14.2006 -13.3089
-53.4252 -14.2296 -13.0619
-53.7064 -14.1562 -12.7537
-54.0745 -13.9657 -12.3785
-54.5359 -13.6417 -11.9311
-55.0952 -13.1674 -11.4066
-55.7553 -12.5229 -10.8006
-56.5408 -11.6608 -10.1255
-57.4508 -10.5536 -9.3811
-58.4532 -9.20394 -8.54938
-59.5359 -7.57931 -7.62828
-60.736 -5.56629 -6.66239
-61.9761 -3.18084 -5.61309
-63.2267 -0.505881 -4.49193
-64.4888 2.4522 -3.33292
-65.6972 5.618 -2.09451
-66.8799 9.0691 -0.848799
-67.9678 12.7117 0.463866
-68.9823 16.598 1.77041
-69.8786 20.6561 3.11231
-70.6611 24.888 4.45216
-71.3254 29.2571 5.77833
-71.8564 33.7317 7.10679
-72.2752 38.2972 8.38988
-72.5691 42.9379 9.6348
-72.7315 47.6389 10.8461
-72.7614 52.398 12.0044
-72.6373 57.2334 13.0902
-72.3471 62.1173 14.132
-71.8804 67.0412 15.1286
-71.225 71.9967 16.0808
-70.3183 77.0241 16.9781
-69.1716 82.0739 17.8405
-67.7708 87.1324 18.6676
-66.105 92.1824 19.4594
-64.1338 97.2264 20.2128
-61.8348 102.248 20.9288
-59.2928 107.166 21.6163
-56.562 111.937 22.2773
-53.6958 116.527 22.9125
-50.8369 120.873 23.5254
-48.0768 124.951 24.1211
-45.4415 128.771 24.6991
-43.0796 132.302 25.2617
-40.8898 135.599 25.8031
-38.8791 138.675 26.3219
-37.0865 141.532 26.8107
-35.4016 144.208 27.2737
-33.8809 146.697 27.7004
-32.4439 149.019 28.1005
-31.1085 151.178 28.4629
-29.8579 153.176 28.8013
-28.6551 155.024 29.1141
-27.5399 156.717 29.4026
-26.4876 158.263 29.671
-25.4503 159.671 29.926
-24.5124 160.934 30.1562
-23.6719 162.058 30.3622
-22.822 163.061 30.5588
-21.962 163.95 30.7375
-21.1254 164.726 30.8922
-20.3196 165.395 31.0241
-19.5557 165.963 31.1347
-18.8464 166.436 31.2256
-18.194 166.821 31.2985
-17.6005 167.128 31.3567
-17.0587 167.364 31.4045
-16.5454 167.543 31.4383
-15.7442 167.703 31.4605
-55.1512 -12.5436 -15.8586
-55.0571 -13.1672 -15.7898
-55.0637 -13.4647 -15.6848
-55.1235 -13.6736 -15.5364
-55.2472 -13.7991 -15.3417
-55.4397 -13.8339 -15.0924
-55.7075 -13.766 -14.7813
-56.0581 -13.5803 -14.4026
-56.4979 -13.2602 -13.9511
-57.0312 -12.7888 -13.4217
-57.6613 -12.1447 -12.8101
-58.4092 -11.2843 -12.1262
-59.2806 -10.1722 -11.3732
-60.2405 -8.81382 -10.532
-61.2767 -7.17769 -9.60033
-62.4254 -5.14878 -8.62052
-63.6119 -2.73431 -7.55727
-64.805 -0.0159248 -6.42028
-66.0065 2.98857 -5.24418
-67.1499 6.20309 -3.98763
-68.2647 9.70252 -2.72229
-69.2803 13.3954 -1.38964
-70.2198 17.3293 -0.0616061
-71.0377 21.4352 1.30131
-71.7385 25.7117 2.66376
-72.3201 30.1228 4.0108
-72.7661 34.6364 5.35986
-73.0995 39.2349 6.66425
-73.3101 43.9029 7.92688
-73.39 48.6259 9.15438
-73.3401 53.399 10.3288
-73.1408 58.2423 11.4263
-72.7772 63.1292 12.4787
-72.2392 68.0516 13.4852
-71.5145 73.0013 14.4469
-70.5439 78.0151 15.3543
-69.3332 83.0502 16.2259
-67.8714 88.09 17.062
-66.1482 93.1172 17.8628
-64.1303 98.1301 18.6256
-61.7903 103.117 19.35
-59.2181 107.995 20.0456
-56.4684 112.723 20.7144
-53.5955 117.266 21.3572
-50.7348 121.567 21.9767
-47.9726 125.604 22.5787
-45.3329 129.387 23.1625
-42.9509 132.889 23.73
-40.7383 136.16 24.2759
-38.6964 139.213 24.7989
-36.8681 142.05 25.2916
-35.1465 144.707 25.7582
-33.5854 147.178 26.1887
-32.1102 149.484 26.5922
-30.7371 151.626 26.9584
-29.4513 153.608 27.3003
-28.2152 155.441 27.6161
-27.0699 157.12 27.9075
-25.9889 158.652 28.1784
-24.9295 160.047 28.4348
-23.9716 161.298 28.6664
-23.1132 162.411 28.8736
-22.2487 163.404 29.071
-21.3818 164.282 29.2496
-20.538 165.049 29.4042
-19.726 165.71 29.5361
-18.9544 166.271 29.6467
-18.2372 166.738 29.7375
-17.5795 167.118 29.8104
-16.9803 167.42 29.8691
-16.4325 167.653 29.9166
-15.913 167.829 29.9502
-15.1919 167.979 29.9723
-57.203 -11.9719 -17.8904
-57.1128 -12.6209 -17.8214
-57.1204 -12.9252 -17.7161
-57.1787 -13.1394 -17.5672
-57.2946 -13.2724 -17.3698
-57.4776 -13.3129 -17.1183
-57.7319 -13.2509 -16.8044
-58.0647 -13.0707 -16.4224
-58.4822 -12.7559 -15.9668
-58.989 -12.2871 -15.4327
-59.5872 -11.6469 -14.8157
-60.2962 -10.7901 -14.1233
-61.1267 -9.67509 -13.3621
-62.0412 -8.3118 -12.5115
-63.0277 -6.66742 -11.5696
-64.1215 -4.62576 -10.5763
-65.2501 -2.18701 -9.49937
-66.3814 0.566641 -8.34692
-67.5183 3.60924 -7.15396
-68.5932 6.86367 -5.87956
-69.6371 10.4032 -4.59481
-70.5781 14.1378 -3.24241
-71.4409 18.1116 -1.89309
-72.1793 22.2578 -0.509349
-72.7978 26.5724 0.875563
-73.2967 31.0195 2.24333
-73.6578 35.5668 3.61286
-73.906 40.1938 4.93845
-74.0339 44.8854 6.21873
-74.0321 49.6271 7.46233
-73.9029 54.4118 8.65291
-73.6288 59.2611 9.76203
-73.1924 64.1494 10.8252
-72.5835 69.069 11.8416
-71.7899 74.0119 12.8127
-70.7557 79.0114 13.7302
-69.4817 84.0307 14.611
-67.9596 89.0508 15.4563
-66.1805 94.0539 16.2662
-64.1171 99.0349 17.0383
-61.738 103.986 17.7711
-59.137 108.824 18.4749
-56.3692 113.508 19.1515
-53.4889 118.005 19.8019
-50.6238 122.262 20.4281
-47.8563 126.26 21.0363
-45.2086 130.007 21.6259
-42.8044 133.48 22.1984
-40.5673 136.725 22.7488
-38.4936 139.755 23.276
-36.6302 142.572 23.7726
-34.873 145.209 24.2428
-33.2732 147.662 24.6772
-31.7615 149.95 25.0842
-30.3527 152.075 25.4542
-29.0335 154.041 25.7996
-27.7662 155.859 26.1184
-26.5926 157.523 26.4126
-25.4846 159.041 26.6861
-24.4045 160.423 26.944
-23.428 161.661 27.1769
-22.553 162.763 27.3853
-21.6724 163.746 27.5835
-20.7995 164.613 27.7621
-19.95 165.371 27.9166
-19.1298 166.024 28.0485
-18.3526 166.578 28.159
-17.6269 167.039 28.2498
-16.9614 167.415 28.3226
-16.3549 167.712 28.3818
-15.8003 167.942 28.4291
-15.2749 168.115 28.4625
-14.5051 168.265 28.4844
-59.2706 -11.2711 -19.9157
-59.1819 -11.9656 -19.8465
-59.1915 -12.2738 -19.7408
-59.2479 -12.4961 -19.5914
-59.3577 -12.6348 -19.3921
-59.5314 -12.6807 -19.1384
-59.7722 -12.6247 -18.8218
-60.0871 -12.4508 -18.4365
-60.4821 -12.1407 -17.977
-60.9614 -11.6771 -17.4384
-61.5273 -11.0401 -16.816
-62.1964 -10.1886 -16.1159
-62.984 -9.07433 -15.3465
-63.8511 -7.70823 -14.4869
-64.7856 -6.05833 -13.5349
-65.8217 -4.0069 -12.5286
-66.8891 -1.54718 -11.4381
-67.9549 1.23487 -10.2706
-69.0237 4.30858 -9.06099
-70.0271 7.59556 -7.76911
-70.9975 11.1682 -6.46512
-71.862 14.9374 -5.09326
-72.6463 18.9447 -3.72279
-73.3043 23.1249 -2.31846
-73.8396 27.4718 -0.911202
-74.2554 31.95 0.477127
-74.5319 36.526 1.86697
-74.6949 41.178 3.21375
-74.7405 45.8896 4.51155
-74.6574 50.6472 5.77115
-74.449 55.4417 6.97796
-74.1007 60.2953 8.09869
-73.5917 65.1839 9.17246
-72.9121 70.0997 10.1988
-72.0496 75.0351 11.1794
-70.9519 80.0196 12.1072
-69.6148 85.0225 12.9972
-68.033 90.022 13.8517
-66.1987 95.0003 14.6706
-64.0907 99.9483 15.4522
-61.6735 104.863 16.1934
-59.0442 109.661 16.9054
-56.2581 114.3 17.5898
-53.369 118.752 18.2479
-50.4972 122.967 18.8809
-47.7218 126.926 19.4954
-45.0635 130.638 20.0908
-42.6354 134.083 20.6683
-40.373 137.302 21.2232
-38.2674 140.309 21.7547
-36.3698 143.104 22.2552
-34.5778 145.721 22.7291
-32.9408 148.156 23.1674
-31.394 150.426 23.5778
-29.9511 152.534 23.9516
-28.5999 154.484 24.3006
-27.3025 156.285 24.6225
-26.102 157.934 24.9195
-24.9677 159.439 25.1957
-23.8681 160.806 25.4551
-22.8739 162.032 25.6894
-21.9831 163.123 25.899
-21.0877 164.094 26.0981
-20.2194 164.95 26.2767
-19.3705 165.698 26.4312
-18.5509 166.343 26.563
-17.7707 166.889 26.6735
-17.0427 167.344 26.7643
-16.3718 167.715 26.8371
-15.7592 168.008 26.8969
-15.198 168.234 26.944
-14.6646 168.405 26.9772
-13.8285 168.557 26.999
-61.3466 -10.4543 -21.9337
-61.257 -11.2189 -21.8642
-61.2695 -11.5268 -21.7582
-61.3256 -11.7508 -21.6083
-61.4299 -11.8969 -21.4076
-61.5943 -11.9493 -21.1518
-61.8218 -11.8989 -20.8327
-62.119 -11.7302 -20.4443
-62.4911 -11.4267 -19.9812
-62.9425 -10.9691 -19.4382
-63.4752 -10.3381 -18.8108
-64.1039 -9.49321 -18.1035
-64.8475 -8.38075 -17.3263
-65.6653 -7.01559 -16.458
-66.5457 -5.3627 -15.4963
-67.522 -3.30283 -14.4777
-68.5252 -0.82615 -13.3742
-69.5225 1.97778 -12.1922
-70.5203 5.07608 -10.9664
-71.4497 8.38866 -9.65753
-72.3444 11.988 -8.33474
-73.1307 15.7849 -6.94386
-73.8351 19.8196 -5.55264
-74.4116 24.0277 -4.12807
-74.8632 28.4014 -2.69881
-75.1957 32.9054 -1.29016
-75.3875 37.5055 0.119798
-75.4657 42.1782 1.48755
-75.4294 46.9063 2.80279
-75.2657 51.6767 4.07834
-74.9787 56.4785 5.30124
-74.5568 61.3342 6.4336
-73.9759 66.2211 7.51804
-73.2264 71.1314 8.55434
-72.2959 76.0576 9.54446
-71.1355 81.026 10.4824
-69.7367 86.0108 11.3818
-68.0969 90.988 12.2455
-66.2093 95.9397 13.0736
-64.0582 100.854 13.8645
-61.605 105.731 14.6143
-58.9491 110.488 15.3344
-56.1456 115.083 16.0268
-53.2472 119.491 16.6924
-50.3671 123.664 17.3321
-47.5817 127.584 17.9529
-44.9104 131.262 18.5541
-42.4579 134.679 19.1365
-40.1694 137.872 19.6961
-38.0323 140.856 20.2318
-36.1008 143.629 20.7363
-34.275 146.226 21.2139
-32.6022 148.641 21.656
-31.0216 150.893 22.07
-29.546 152.983 22.4476
-28.1643 154.916 22.8001
-26.8384 156.701 23.1251
-25.6122 158.335 23.4249
-24.4534 159.825 23.7036
-23.3353 161.178 23.9645
-22.3245 162.391 24.2001
-21.4187 163.47 24.411
-20.5066 164.432 24.6108
-19.6322 165.278 24.7893
-18.7785 166.016 24.9438
-17.9527 166.652 25.0756
-17.1657 167.192 25.1861
-16.4301 167.641 25.2769
-15.7536 168.006 25.3496
-15.1356 168.295 25.4098
-14.5685 168.518 25.4566
-14.0291 168.686 25.4897
-13.2764 168.827 25.5114
-63.4141 -9.75007 -23.9076
-63.3479 -10.4395 -23.838
-63.3642 -10.7406 -23.7316
-63.4219 -10.9539 -23.5812
-63.5253 -11.0865 -23.3798
-63.6833 -11.13 -23.1223
-63.8995 -11.0748 -22.8009
-64.1801 -10.9036 -22.4097
-64.5305 -10.5993 -21.9432
-64.9542 -10.143 -21.3963
-65.4538 -9.5131 -20.7645
-66.044 -8.6685 -20.0521
-66.742 -7.55586 -19.2677
-67.5087 -6.18884 -18.3913
-68.3321 -4.53091 -17.4208
-69.2469 -2.45764 -16.3921
-70.1809 0.0388581 -15.2764
-71.106 2.86074 -14.0824
-72.0271 5.9768 -12.8412
-72.8785 9.30969 -11.5179
-73.6921 12.9285 -10.1771
-74.3965 16.7471 -8.76963
-75.0165 20.8018 -7.3585
-75.5087 25.0313 -5.91601
-75.873 29.4246 -4.46556
-76.1203 33.9479 -3.03878
-76.2262 38.5653 -1.61084
-76.2173 43.2526 -0.222762
-76.0987 47.9915 1.10794
-75.8538 52.7696 2.39757
-75.4875 57.5751 3.63394
-74.9912 62.4278 4.77857
-74.3378 67.3095 5.87242
-73.5175 72.2112 6.91767
-72.5182 77.1253 7.91655
-71.2951 82.0739 8.86437
-69.8342 87.0377 9.77235
-68.1361 91.9899 10.6447
-66.1952 96.9123 11.4814
-64.0022 101.789 12.2815
-61.5132 106.627 13.0393
-58.8309 111.34 13.7673
-56.01 115.89 14.4671
-53.1021 120.251 15.1402
-50.2131 124.381 15.7864
-47.4174 128.262 16.4132
-44.7333 131.904 17.02
-42.2567 135.291 17.6072
-39.9433 138.456 18.1711
-37.7758 141.415 18.7109
-35.8124 144.165 19.2191
-33.9545 146.74 19.7003
-32.2476 149.135 20.1461
-30.6349 151.366 20.5635
-29.1282 153.438 20.9448
-27.7168 155.353 21.3007
-26.3645 157.121 21.6286
-25.114 158.738 21.9312
-23.9318 160.213 22.2124
-22.7964 161.552 22.4747
-21.7699 162.752 22.7116
-20.8502 163.819 22.9236
-19.9205 164.77 23.1241
-19.0411 165.605 23.3025
-18.1841 166.333 23.4569
-17.3505 166.961 23.5886
-16.5585 167.494 23.6991
-15.8153 167.936 23.7898
-15.1312 168.297 23.8625
-14.506 168.582 23.923
-13.9325 168.801 23.9695
-13.3876 168.966 24.0024
-12.5835 169.107 24.024
-65.478 -8.72597 -25.9343
-65.4127 -9.49391 -25.8643
-65.4302 -9.80567 -25.7576
-65.486 -10.0302 -25.6066
-65.5837 -10.1769 -25.4044
-65.7316 -10.2314 -25.1448
-65.9353 -10.1783 -24.8211
-66.1996 -10.0039 -24.4271
-66.5295 -9.69039 -23.9572
-66.9276 -9.22267 -23.4064
-67.3955 -8.58118 -22.77
-67.945 -7.72897 -22.0507
-68.5974 -6.60996 -21.259
-69.3115 -5.24279 -20.3745
-70.0753 -3.59887 -19.395
-70.9231 -1.56403 -18.3541
-71.7882 0.871945 -17.226
-72.6421 3.68264 -16.0175
-73.4902 6.81396 -14.7607
-74.2654 10.1617 -13.4202
-75.0021 13.7985 -12.0611
-75.627 17.6351 -10.6342
-76.1669 21.7092 -9.20274
-76.5774 25.9584 -7.73938
-76.8585 30.3715 -6.26721
-77.0229 34.9143 -4.81924
-77.0449 39.55 -3.37026
-76.9525 44.2534 -1.96119
-76.7533 49.0049 -0.611928
-76.4293 53.7922 0.694779
-75.9862 58.6032 1.94651
-75.4175 63.4557 3.10484
-74.6941 68.3338 4.21032
-73.806 73.2284 5.26637
-72.7411 78.1317 6.2755
-71.4566 83.064 7.23376
-69.937 88.0082 8.15168
-68.1842 92.9368 9.03387
-66.1938 97.8314 9.88017
-63.9596 102.675 10.6899
-61.4378 107.475 11.4567
-58.731 112.147 12.1932
-55.8926 116.655 12.9012
-52.9734 120.974 13.5821
-50.073 125.065 14.2353
-47.2635 128.911 14.8685
-44.563 132.521 15.4812
-42.061 135.88 16.0737
-39.7204 139.02 16.6423
-37.5219 141.956 17.1866
-35.5254 144.685 17.6989
-33.6347 147.239 18.184
-31.8937 149.615 18.6339
-30.2489 151.828 19.055
-28.7112 153.882 19.4401
-27.2703 155.779 19.7997
-25.8915 157.531 20.1308
-24.6167 159.133 20.4364
-23.4116 160.593 20.7201
-22.2588 161.918 20.984
-21.2166 163.105 21.2224
-20.2828 164.161 21.4357
-19.3357 165.102 21.6368
-18.4518 165.927 21.8152
-17.5884 166.646 21.9696
-16.7508 167.266 22.1014
-15.9505 167.792 22.2118
-15.2028 168.229 22.3026
-14.5111 168.584 22.3753
-13.8791 168.864 22.4361
-13.2994 169.081 22.4824
-12.7479 169.243 22.5151
-11.8889 169.384 22.5365
-67.5207 -7.82963 -27.9339
-67.4766 -8.51968 -27.8637
-67.496 -8.83747 -27.7565
-67.5508 -9.06792 -27.605
-67.6447 -9.21919 -27.402
-67.7837 -9.28089 -27.1409
-67.9737 -9.238 -26.8151
-68.2195 -9.07633 -26.4186
-68.5254 -8.77911 -25.9457
-68.8945 -8.32731 -25.3913
-69.3281 -7.70189 -24.7508
-69.8369 -6.86696 -24.0259
-70.4439 -5.76047 -23.2276
-71.1076 -4.40211 -22.3356
-71.8161 -2.75842 -21.3478
-72.6028 -0.709782 -20.2962
-73.4003 1.75993 -19.1565
-74.1807 4.5911 -17.9352
-74.9528 7.73329 -16.6636
-75.6496 11.0923 -15.3075
-76.3064 14.7425 -13.9309
-76.8495 18.5931 -12.4861
-77.3067 22.682 -11.035
-77.6336 26.9468 -9.55213
-77.8294 31.3753 -8.05886
-77.9097 35.9335 -6.59095
-77.8468 40.5832 -5.12209
-77.6698 45.2987 -3.69247
-77.3895 50.059 -2.32564
-76.9861 54.8521 -1.00276
-76.4659 59.6657 0.263577
-75.8247 64.515 1.43543
-75.0313 69.3871 2.55197
-74.0753 74.2722 3.61837
-72.9448 79.1626 4.63741
-71.5995 84.0761 5.60599
-70.0215 88.9988 6.53356
-68.2145 93.9018 7.42531
-66.1751 98.7667 8.28101
-63.9009 103.575 9.10034
-61.3467 108.336 9.87582
-58.6155 112.966 10.6207
-55.7598 117.432 11.3368
-52.8289 121.707 12.0254
-49.9167 125.759 12.6854
-47.0936 129.569 13.3251
-44.3768 133.145 13.9436
-41.8502 136.477 14.5412
-39.4833 139.59 15.1145
-37.2549 142.502 15.6632
-35.2266 145.209 16.1795
-33.3044 147.742 16.6684
-31.5305 150.098 17.1223
-29.8545 152.292 17.5471
-28.2868 154.327 17.9362
-26.8173 156.207 18.2993
-25.4129 157.942 18.6336
-24.1144 159.528 18.942
-22.8871 160.973 19.2282
-21.7176 162.284 19.4938
-20.6603 163.458 19.7335
-19.713 164.502 19.9481
-18.7485 165.433 20.1497
-17.8582 166.248 20.3282
-16.9911 166.958 20.4826
-16.1482 167.57 20.6144
-15.3418 168.088 20.7249
-14.5865 168.519 20.8156
-13.8898 168.869 20.8884
-13.2525 169.145 20.9494
-12.667 169.358 20.9954
-12.1102 169.517 21.0279
-11.3361 169.648 21.0492
-69.571 -6.70892 -29.9291
-69.5263 -7.51095 -29.8586
-69.548 -7.83174 -29.7511
-69.6021 -8.06471 -29.599
-69.6923 -8.21844 -29.3953
-69.8229 -8.28665 -29.1328
-69.9997 -8.25381 -28.8051
-70.2277 -8.10188 -28.4062
-70.5108 -7.81654 -27.9305
-70.8518 -7.37726 -27.3729
-71.2518 -6.76539 -26.7286
-71.7207 -5.94431 -25.9989
-72.2825 -4.84996 -25.1942
-72.8955 -3.50013 -24.2952
-73.5479 -1.85934 -23.2996
-74.2724 0.197441 -22.238
-75.001 2.68932 -21.0872
-75.7075 5.5302 -19.8537
-76.403 8.68079 -18.5677
-77.0206 12.0485 -17.1966
-77.5969 15.7096 -15.8029
-78.0577 19.5719 -14.3406
-78.4316 23.6735 -12.8702
-78.6744 27.9516 -11.368
-78.7845 32.3934 -9.85396
-78.7802 36.9649 -8.36611
-78.6322 41.6268 -6.8773
-78.3703 46.3526 -5.42725
-78.009 51.12 -4.0426
-77.5265 55.9174 -2.70327
-76.9295 60.732 -1.42202
-76.2163 65.5771 -0.236606
-75.3535 70.4419 0.891292
-74.3306 75.3162 1.96829
-73.1357 80.1926 2.99746
-71.7303 85.0867 3.97644
-70.0951 89.9868 4.91386
-68.2353 94.8633 5.81535
-66.1484 99.6979 6.68061
-63.8348 104.471 7.50958
-61.2493 109.192 8.29395
-58.4943 113.781 9.04734
-55.6213 118.204 9.77155
-52.6784 122.438 10.468
-49.7538 126.45 11.135
-46.9163 130.224 11.781
-44.183 133.768 12.4055
-41.6321 137.072 13.0082
-39.2392 140.159 13.5863
-36.9816 143.047 14.1394
-34.922 145.732 14.6599
-32.9688 148.243 15.1528
-31.1626 150.579 15.6107
-29.4561 152.753 16.0392
-27.8589 154.77 16.4322
-26.3611 156.633 16.799
-24.9314 158.351 17.1364
-23.6096 159.921 17.4478
-22.3605 161.352 17.7365
-21.1744 162.648 18.0037
-20.1022 163.81 18.2449
-19.1417 164.842 18.4607
-18.1596 165.762 18.663
-17.263 166.567 18.8414
-16.3923 167.268 18.9959
-15.5429 167.872 19.1277
-14.7316 168.383 19.2382
-13.9692 168.808 19.329
-13.2653 169.153 19.4017
-12.6207 169.425 19.463
-12.0285 169.634 19.5087
-11.4658 169.791 19.541
-10.6377 169.921 19.5622
-71.5875 -5.73564 -31.9227
-71.5595 -6.47547 -31.852
-71.5832 -6.79885 -31.744
-71.6363 -7.03596 -31.5914
-71.7223 -7.19563 -31.387
-71.8448 -7.27024 -31.1232
-72.0089 -7.24539 -30.7938
-72.2195 -7.10436 -30.3928
-72.4805 -6.82841 -29.9147
-72.794 -6.40084 -29.3541
-73.1613 -5.80073 -28.7065
-73.591 -4.99222 -27.9722
-74.1081 -3.90885 -27.1617
-74.6709 -2.56766 -26.2562
-75.2674 -0.93161 -25.2533
-75.9294 1.12915 -24.1822
-76.5888 3.63565 -23.021
-77.2215 6.48152 -21.7756
-77.8405 9.6393 -20.4759
-78.3788 13.014 -19.0901
-78.8746 16.6852 -17.6799
-79.2526 20.5577 -16.2002
-79.543 24.671 -14.711
-79.7012 28.9614 -13.1896
-79.7253 33.4156 -11.6551
-79.636 37.9995 -10.1471
-79.4024 42.6725 -8.63802
-79.0558 47.4077 -7.16767
-78.6133 52.1812 -5.76473
-78.0517 56.9817 -4.40842
-77.3784 61.7963 -3.11178
-76.5937 66.6363 -1.91267
-75.6625 71.4927 -0.772966
-74.5737 76.3554 0.315016
-73.3155 81.2167 1.35462
-71.851 86.0909 2.34411
-70.1601 90.9676 3.29167
-68.249 95.817 4.20315
-66.116 100.621 5.07819
-63.7639 105.359 5.91693
-61.1483 110.041 6.71036
-58.3702 114.588 7.47245
-55.48 118.969 8.20494
-52.5246 123.162 8.90922
-49.5874 127.136 9.58337
-46.7354 130.875 10.2359
-43.9852 134.387 10.8664
-41.4105 137.663 11.4744
-38.9919 140.724 12.0573
-36.7057 143.588 12.615
-34.6152 146.25 13.1397
-32.6314 148.74 13.6366
-30.7933 151.056 14.0986
-29.0566 153.211 14.5309
-27.4301 155.21 14.9279
-25.9044 157.055 15.2984
-24.4494 158.756 15.6391
-23.1043 160.31 15.9535
-21.8337 161.727 16.2447
-20.6313 163.009 16.5135
-19.5443 164.158 16.7562
-18.5706 165.178 16.9734
-17.5709 166.089 17.1761
-16.6683 166.883 17.3547
-15.7922 167.575 17.5092
-14.9391 168.171 17.641
-14.1204 168.675 17.7516
-13.3531 169.094 17.8424
-12.6427 169.434 17.9156
-11.991 169.702 17.9765
-11.3926 169.908 18.022
-10.8224 170.061 18.0541
-9.93768 170.191 18.0752
-73.5893 -4.7569 -33.9138
-73.575 -5.43899 -33.8428
-73.6003 -5.76791 -33.7345
-73.652 -6.01041 -33.5813
-73.7338 -6.17532 -33.3761
-73.8483 -6.25608 -33.1113
-74 -6.23899 -32.7803
-74.1937 -6.10749 -32.3775
-74.4331 -5.8421 -31.897
-74.7199 -5.42605 -31.3338
-75.0552 -4.83765 -30.6831
-75.4467 -4.04162 -29.9448
-75.9202 -2.96898 -29.1289
-76.4337 -1.63656 -28.2174
-76.9751 -0.00461898 -27.2078
-77.5753 2.0613 -26.1276
-78.1659 4.58373 -24.9565
-78.7251 7.43445 -23.6999
-79.2681 10.5999 -22.387
-79.727 13.982 -20.9869
-80.1423 17.6638 -19.5605
-80.4371 21.5469 -18.0637
-80.6438 25.6726 -16.556
-80.7166 29.9757 -15.0153
-80.6542 34.4429 -13.4606
-80.479 39.0394 -11.9323
-80.1589 43.7237 -10.4028
-79.727 48.4682 -8.91208
-79.2029 53.2476 -7.4904
-78.5618 58.0509 -6.11663
-77.8123 62.8648 -4.80412
-76.9565 67.6993 -3.59113
-75.9573 72.5468 -2.43918
-74.8033 77.3971 -1.33985
-73.4826 82.2428 -0.289492
-71.9597 87.097 0.710752
-70.214 91.9501 1.66871
-68.2523 96.7722 2.59044
-66.0739 101.545 3.4755
-63.6826 106.249 4.32401
-61.0379 110.891 5.12691
-58.2365 115.399 5.89788
-55.3287 119.739 6.6388
-52.3604 123.891 7.35108
-49.4102 127.827 8.03256
-46.5433 131.531 8.6918
-43.7765 135.011 9.32846
-41.1783 138.259 9.94189
-38.7345 141.294 10.5297
-36.4202 144.135 11.0921
-34.2991 146.775 11.6212
-32.2852 149.244 12.1221
-30.4153 151.54 12.5884
-28.6484 153.677 13.0246
-26.9925 155.657 13.4257
-25.4385 157.485 13.7999
-23.9581 159.17 14.144
-22.5894 160.708 14.4614
-21.2965 162.11 14.7552
-20.0776 163.378 15.0257
-18.9757 164.514 15.27
-17.9886 165.523 15.4886
-16.9689 166.424 15.6919
-16.0646 167.208 15.8706
-15.1946 167.89 16.0253
-14.3433 168.478 16.1572
-13.5252 168.975 16.2678
-12.7549 169.387 16.3587
-12.0423 169.722 16.4325
-11.3874 169.985 16.4931
-10.7849 170.188 16.5383
-10.2089 170.338 16.5703
-9.39827 170.46 16.5913
-75.5839 -3.62956 -35.9041
-75.5718 -4.43089 -35.8329
-75.5983 -4.76455 -35.7242
-75.6484 -5.01256 -35.5705
-75.7256 -5.18282 -35.3646
-75.8322 -5.27018 -35.0989
-75.9717 -5.26094 -34.7666
-76.1491 -5.1383 -34.3622
-76.3673 -4.88384 -33.8798
-76.6282 -4.47894 -33.3144
-76.9324 -3.90185 -32.6612
-77.2866 -3.11799 -31.9193
-77.7176 -2.0555 -31.0986
-78.1831 -0.731107 -30.1817
-78.6706 0.897141 -29.1662
-79.2099 2.96889 -28.0776
-79.7327 5.50827 -26.8974
-80.2194 8.36422 -25.6301
-80.6872 11.5389 -24.3048
-81.0671 14.9296 -22.8909
-81.4024 18.6236 -21.4492
-81.6138 22.5186 -19.9355
-81.7368 26.6583 -18.41
-81.7236 30.9751 -16.8501
-81.5744 35.4565 -15.2757
-81.3124 40.0664 -13.7268
-80.9048 44.7628 -12.1763
-80.3876 49.5168 -10.6656
-79.7812 54.302 -9.22446
-79.0606 59.1074 -7.83245
-78.2351 63.92 -6.50334
-77.3091 68.7482 -5.2764
-76.2431 73.5855 -4.11156
-75.0254 78.4223 -3.00034
-73.6442 83.2512 -1.93883
-72.0642 88.0848 -0.927766
-70.2656 92.9134 0.0409598
-68.2555 97.7075 0.973256
-66.0339 102.449 1.86863
-63.6052 107.118 2.72715
-60.9323 111.722 3.53963
-58.1091 116.189 4.31969
-55.1848 120.488 5.06923
-52.2039 124.601 5.78964
-49.2413 128.5 6.47853
-46.3601 132.17 7.14453
-43.5767 135.619 7.78743
-40.9561 138.839 8.40636
-38.4871 141.849 8.99924
-36.1458 144.666 9.56633
-33.9939 147.285 10.0999
-31.9499 149.733 10.605
-30.0485 152.01 11.0756
-28.2515 154.127 11.5159
-26.5662 156.09 11.9211
-24.9842 157.9 12.2991
-23.478 159.569 12.6465
-22.0857 161.092 12.9671
-20.7712 162.479 13.2635
-19.5356 163.734 13.5357
-18.4187 164.857 13.7815
-17.4182 165.855 14.0015
-16.38 166.746 14.2054
-15.4661 167.52 14.3842
-14.5936 168.194 14.5389
-13.7366 168.773 14.671
-12.9128 169.263 14.7817
-12.1358 169.67 14.8726
-11.4156 169.999 14.9468
-10.7535 170.259 15.0071
-10.1436 170.458 15.0521
-9.56139 170.605 15.0839
-8.69461 170.727 15.1047
-77.5527 -2.72996 -37.8946
-77.551 -3.478 -37.8232
-77.5783 -3.8156 -37.7141
-77.6265 -4.06814 -37.5599
-77.6988 -4.24535 -37.3533
-77.7972 -4.34082 -37.0868
-77.9246 -4.34122 -36.7535
-78.086 -4.22727 -36.3477
-78.2838 -3.98317 -35.8638
-78.5196 -3.5886 -35.2966
-78.7938 -3.02175 -34.6412
-79.112 -2.24911 -33.8963
-79.502 -1.19524 -33.0714
-79.921 0.122832 -32.1497
-80.3562 1.74901 -31.129
-80.8359 3.82895 -30.0327
-81.2926 6.38753 -28.8441
-81.708 9.25113 -27.5667
-82.1021 12.4387 -26.2298
-82.4034 15.8412 -24.8026
-82.6595 19.5512 -23.3461
-82.7874 23.4615 -21.8159
-82.8267 27.6187 -20.2731
-82.7267 31.9524 -18.6938
-82.4901 36.4512 -17.1002
-82.1401 41.077 -15.5303
-81.6435 45.7875 -13.9585
-81.0403 50.5527 -12.4277
-80.3507 55.3446 -10.9664
-79.5497 60.1528 -9.55531
-78.6481 64.9639 -8.20878
-77.6527 69.7857 -6.96774
-76.5208 74.6123 -5.78927
-75.2407 79.4348 -4.66559
-73.8004 84.2462 -3.59246
-72.1645 89.0592 -2.5704
-70.3146 93.8628 -1.59052
-68.2576 98.6287 -0.647299
-65.994 103.339 0.258719
-63.5292 107.974 1.12754
-60.8286 112.54 1.94976
-57.9844 116.967 2.73918
-55.0439 121.227 3.49757
-52.0508 125.3 4.2263
-49.0763 129.163 4.92273
-46.181 132.8 5.59567
-43.3815 136.218 6.24493
-40.7393 139.411 6.86949
-38.2457 142.396 7.46756
-35.8781 145.19 8.03946
-33.6953 147.788 8.5776
-31.6212 150.216 9.08718
-29.6881 152.473 9.56214
-27.8608 154.572 10.0065
-26.1456 156.517 10.4161
-24.5353 158.311 10.7979
-23.0029 159.963 11.1488
-21.5863 161.471 11.4726
-20.25 162.844 11.7715
-18.9973 164.085 12.0455
-17.8651 165.196 12.2929
-16.8484 166.183 12.5146
-15.7938 167.064 12.7187
-14.8702 167.829 12.8977
-13.9928 168.494 13.0526
-13.1323 169.066 13.1847
-12.3012 169.549 13.2955
-11.5188 169.95 13.3866
-10.792 170.274 13.4611
-10.1231 170.529 13.521
-9.50658 170.725 13.5658
-8.91657 170.87 13.5974
-7.98944 170.99 13.6182
-79.509 -1.91825 -39.8851
-79.5151 -2.6105 -39.8134
-79.5424 -2.95559 -39.704
-79.588 -3.21582 -39.5494
-79.655 -3.40062 -39.3422
-79.7453 -3.50389 -39.075
-79.8609 -3.51398 -38.7408
-80.0066 -3.40975 -38.334
-80.1846 -3.17606 -37.8489
-80.3963 -2.79146 -37.2803
-80.6416 -2.23505 -36.6232
-80.925 -1.47308 -35.8759
-81.2758 -0.426403 -35.0473
-81.6504 0.887559 -34.1216
-82.0355 2.51538 -33.0963
-82.4575 4.61069 -31.993
-82.85 7.19488 -30.7969
-83.1959 10.0713 -29.5101
-83.518 13.2776 -28.1623
-83.7416 16.6974 -26.7223
-83.9195 20.4292 -25.2518
-83.9635 24.3602 -23.7052
-83.9193 28.5406 -22.1457
-83.7314 32.8961 -20.5472
-83.4066 37.4174 -18.9347
-82.9669 42.063 -17.3436
-82.3793 46.7917 -15.7498
-81.6891 51.5708 -14.1992
-80.9146 56.3715 -12.7168
-80.0323 61.1837 -11.2857
-79.0541 65.9937 -9.92084
-77.9901 70.8091 -8.66553
-76.793 75.6246 -7.47265
-75.4517 80.4324 -6.33588
-73.954 85.2257 -5.25064
-72.2633 90.0183 -4.21739
-70.3635 94.7969 -3.22594
-68.261 99.5346 -2.27139
-65.9568 104.214 -1.35438
-63.4565 108.815 -0.475026
-60.729 113.344 0.357207
-57.8645 117.732 1.15626
-54.9085 121.953 1.92375
-51.9034 125.988 2.661
-48.9177 129.815 3.36514
-46.0091 133.419 4.04518
-43.1941 136.808 4.70096
-40.5312 139.975 5.3313
-38.0133 142.935 5.9347
-35.62 145.706 6.51158
-33.4062 148.284 7.05447
-31.3019 150.691 7.56855
-29.3369 152.931 8.04801
-27.4787 155.012 8.49668
-25.7331 156.939 8.91053
-24.0937 158.717 9.29637
-22.5342 160.353 9.65077
-21.0926 161.847 9.97782
-19.7339 163.206 10.2793
-18.4636 164.434 10.5552
-17.3154 165.532 10.8044
-16.2799 166.508 11.0277
-15.2103 167.379 11.2321
-14.2742 168.136 11.4113
-13.3945 168.792 11.5664
-12.5273 169.356 11.6987
-11.6917 169.832 11.8096
-10.901 170.227 11.9008
-10.1678 170.547 11.9755
-9.49357 170.798 12.0352
-8.8715 170.99 12.0797
-8.27485 171.132 12.1111
-7.4382 171.244 12.1318
-81.4582 -1.06476 -41.8765
-81.4669 -1.87266 -41.8047
-81.4935 -2.22595 -41.695
-81.5359 -2.49466 -41.54
-81.597 -2.68805 -41.3322
-81.6788 -2.79976 -41.0645
-81.7828 -2.81854 -40.7297
-81.9132 -2.72441 -40.3222
-82.0722 -2.49986 -39.8363
-82.2607 -2.12405 -39.2666
-82.4786 -1.5759 -38.6084
-82.7287 -0.822415 -37.8592
-83.0423 0.22016 -37.0276
-83.3747 1.53355 -36.0984
-83.7123 3.16843 -35.0695
-84.0789 5.28221 -33.9598
-84.4102 7.89853 -32.757
-84.6889 10.7941 -31.4615
-84.9415 14.0272 -30.1037
-85.0885 17.4721 -28.6514
-85.1894 21.2342 -27.1677
-85.1496 25.1937 -25.605
-85.022 29.4052 -24.0295
-84.745 33.7899 -22.4115
-84.331 38.3409 -20.7806
-83.7994 43.0126 -19.1678
-83.118 47.765 -17.5515
-82.3394 52.5625 -15.9812
-81.4778 57.3753 -14.4768
-80.5124 62.1938 -13.0245
-79.457 67.0042 -11.6404
-78.3251 71.8136 -10.3706
-77.0637 76.618 -9.16237
-75.6626 81.4109 -8.0118
-74.1089 86.1859 -6.91391
-72.3646 90.9585 -5.86924
-70.4164 95.7123 -4.86574
-68.2695 100.422 -3.89944
-65.9258 105.071 -2.97103
-63.3899 109.64 -2.08107
-60.6368 114.132 -1.23832
-57.7527 118.483 -0.429315
-54.7817 122.666 0.347539
-51.7652 126.664 1.09357
-48.7691 130.456 1.8056
-45.8479 134.028 2.49295
-43.0183 137.387 3.15544
-40.3357 140.528 3.79172
-37.794 143.465 4.40063
-35.3752 146.214 4.98265
-33.1306 148.772 5.53042
-30.9959 151.16 6.04918
-28.9984 153.381 6.53327
-27.1086 155.445 6.98635
-25.3315 157.356 7.40466
-23.6622 159.118 7.79456
-22.0743 160.739 8.1526
-20.6066 162.218 8.483
-19.2247 163.563 8.78713
-17.9358 164.779 9.06499
-16.7709 165.865 9.31589
-15.7156 166.831 9.54087
-14.6303 167.692 9.7456
-13.6809 168.44 9.92505
-12.7978 169.087 10.0804
-11.9241 169.644 10.2129
-11.082 170.114 10.324
-10.2841 170.503 10.4153
-9.54244 170.818 10.4902
-8.86003 171.065 10.5495
-8.22975 171.254 10.5938
-7.62631 171.392 10.6251
-6.73054 171.503 10.6457
-83.3978 -0.556752 -43.8696
-83.41 -1.30764 -43.7976
-83.435 -1.6699 -43.6878
-83.4735 -1.94742 -43.5324
-83.5281 -2.15148 -43.3242
-83.6009 -2.27334 -43.0561
-83.6933 -2.30144 -42.7209
-83.8089 -2.2181 -42.3131
-83.9495 -2.00257 -41.8266
-84.1159 -1.63586 -41.2564
-84.3078 -1.09563 -40.5976
-84.5264 -0.349735 -39.8471
-84.8054 0.691063 -39.013
-85.0986 2.0077 -38.0813
-85.3918 3.65556 -37.0493
-85.706 5.80059 -35.9341
-85.9797 8.45875 -34.7256
-86.194 11.3832 -33.4222
-86.3803 14.6536 -32.0552
-86.4525 18.1343 -30.5914
-86.4784 21.9371 -29.0951
-86.3548 25.9359 -27.5167
-86.1444 30.189 -25.9257
-85.7767 34.613 -24.2883
-85.2726 39.2032 -22.6395
-84.6462 43.9098 -21.0046
-83.8677 48.6942 -19.3651
-82.9988 53.5164 -17.7751
-82.0471 58.3465 -16.2476
-80.9963 63.175 -14.773
-79.8636 67.9883 -13.3701
-78.6632 72.7926 -12.0838
-77.338 77.5864 -10.8593
-75.8783 82.3644 -9.69413
-74.2703 87.1214 -8.58299
-72.4737 91.8747 -7.52665
-70.4782 96.6043 -6.51059
-68.2882 101.287 -5.53206
-65.906 105.907 -4.59182
-63.3346 110.445 -3.69101
-60.5569 114.902 -2.83737
-57.6538 119.215 -2.01806
-54.6685 123.362 -1.23153
-51.6413 127.324 -0.476453
-48.6359 131.082 0.243662
-45.7032 134.623 0.938545
-42.8599 137.954 1.60795
-40.1587 141.069 2.25035
-37.5938 143.984 2.86495
-35.15 146.711 3.4523
-32.8746 149.25 4.00511
-30.709 151.62 4.52871
-28.6783 153.824 5.01757
-26.7561 155.871 5.47522
-24.9462 157.766 5.89808
-23.2458 159.512 6.29218
-21.628 161.119 6.65394
-20.1327 162.584 6.98779
-18.7264 163.916 7.29462
-17.4177 165.119 7.5745
-16.2348 166.194 7.82723
-15.1588 167.15 8.0539
-14.0567 168.001 8.25898
-13.0933 168.741 8.43875
-12.2038 169.38 8.59435
-11.3264 169.929 8.72708
-10.4751 170.393 8.83837
-9.67036 170.776 8.92981
-8.92145 171.086 9.00487
-8.23088 171.329 9.06391
-7.59285 171.514 9.10797
-6.98063 171.65 9.13913
-6.02188 171.759 9.15955
-85.3364 -0.0999117 -45.8626
-85.3489 -0.963121 -45.7905
-85.3711 -1.33674 -45.6805
-85.4046 -1.62592 -45.5249
-85.4519 -1.84139 -45.3164
-85.5152 -1.97586 -45.048
-85.596 -2.01362 -44.7129
-85.6972 -1.93898 -44.3049
-85.8202 -1.73081 -43.8184
-85.9657 -1.37002 -43.2481
-86.1332 -0.833196 -42.5892
-86.3222 -0.0906006 -41.838
-86.5693 0.954024 -41.0023
-86.8264 2.28029 -40.0686
-87.0791 3.94753 -39.0346
-87.3448 6.12892 -37.9147
-87.5658 8.83701 -36.7013
-87.7199 11.8004 -35.3909
-87.8439 15.1211 -34.0158
-87.847 18.6549 -32.5432
-87.7972 22.5078 -31.0333
-87.5904 26.5595 -29.4395
-87.2979 30.8676 -27.8338
-86.8382 35.3437 -26.1771
-86.2428 39.9859 -24.511
-85.5185 44.7387 -22.8536
-84.6384 49.5663 -21.1903
-83.6766 54.4218 -19.5809
-82.6308 59.2766 -18.0293
-81.491 64.1208 -16.5311
-80.2812 68.9408 -15.1111
-79.0106 73.7415 -13.8053
-77.6219 78.5258 -12.5635
-76.1047 83.2897 -11.3829
-74.4439 88.0291 -10.2579
-72.5957 92.7644 -9.18962
-70.5541 97.4707 -8.16049
-68.3218 102.128 -7.16926
-65.9018 106.719 -6.21674
-63.2952 111.229 -5.30484
-60.4932 115.651 -4.43992
-57.5719 119.929 -3.60995
-54.5729 124.04 -2.81343
-51.5358 127.967 -2.04918
-48.5224 131.692 -1.32063
-45.5794 135.203 -0.617976
-42.7237 138.506 0.0585598
-40.0052 141.597 0.70725
-37.418 144.49 1.32774
-34.9498 147.196 1.9206
-32.6436 149.717 2.47859
-30.4469 152.07 3.00721
-28.3822 154.257 3.50095
-26.4263 156.289 3.96333
-24.5822 158.169 4.39088
-22.849 159.9 4.78928
-21.1994 161.493 5.15488
-19.6747 162.945 5.49226
-18.2423 164.264 5.80185
-16.9122 165.455 6.08383
-15.71 166.519 6.33845
-14.6117 167.465 6.56681
-13.4915 168.307 6.77231
-12.5113 169.038 6.95244
-11.6168 169.669 7.10835
-10.7317 170.211 7.24135
-9.87367 170.669 7.35287
-9.05918 171.047 7.44449
-8.30225 171.352 7.51958
-7.60473 171.591 7.57833
-6.96001 171.773 7.62218
-6.34033 171.906 7.65319
-5.47423 172.007 7.67351
-87.2748 -0.0970937 -47.8587
-87.2852 -0.897266 -47.7865
-87.3033 -1.28315 -47.6764
-87.3308 -1.58572 -47.5208
-87.3698 -1.81458 -47.3121
-87.4225 -1.96203 -47.0436
-87.4917 -2.01279 -46.7087
-87.5787 -1.94761 -46.301
-87.685 -1.74872 -45.8148
-87.8109 -1.39491 -45.2449
-87.956 -0.861996 -44.5864
-88.1177 -0.122181 -43.8351
-88.3363 0.92839 -42.9984
-88.5618 2.27014 -42.0636
-88.7789 3.96531 -41.0283
-89.0012 6.19971 -39.9047
-89.1758 8.97367 -38.6874
-89.2749 11.9903 -37.3708
-89.3423 15.3766 -35.9885
-89.2812 18.9799 -34.5082
-89.1588 22.8983 -32.9851
-88.8703 27.0195 -31.3764
-88.4979 31.399 -29.7567
-87.9453 35.9438 -28.0806
-87.258 40.6537 -26.3977
-86.4323 45.4684 -24.7173
-85.4455 50.3544 -23.0295
-84.3876 55.2554 -21.4007
-83.2421 60.1459 -19.8237
-82.0085 65.0147 -18.3005
-80.72 69.8468 -16.8632
-79.3775 74.6479 -15.5365
-77.925 79.4254 -14.2761
-76.3509 84.1769 -13.0791
-74.6386 88.9 -11.9395
-72.7395 93.6195 -10.8591
-70.6525 98.3044 -9.81626
-68.3784 102.938 -8.81176
-65.921 107.503 -7.84645
-63.2788 111.986 -6.92319
-60.4529 116.376 -6.0465
-57.5136 120.62 -5.20544
-54.5013 124.697 -4.39855
-51.455 128.591 -3.62495
-48.4347 132.284 -2.88758
-45.4827 135.766 -2.17686
-42.6161 139.043 -1.49294
-39.8819 142.11 -0.83774
-37.2733 144.982 -0.21113
-34.7816 147.669 0.387458
-32.4446 150.173 0.950833
-30.2166 152.509 1.48466
-28.1167 154.681 1.98348
-26.126 156.698 2.45075
-24.2456 158.564 2.88313
-22.4778 160.282 3.28597
-20.7937 161.862 3.65552
-19.2372 163.301 3.99656
-17.7766 164.608 4.30899
-16.4226 165.787 4.59317
-15.1989 166.84 4.84978
-14.0763 167.777 5.07985
-12.9362 168.61 5.28583
-11.9373 169.333 5.46638
-11.0362 169.957 5.62266
-10.1423 170.492 5.75597
-9.27479 170.943 5.86775
-8.45107 171.316 5.95959
-7.68321 171.616 6.03463
-6.97518 171.851 6.09311
-6.32032 172.03 6.13675
-5.69229 172.16 6.16762
-4.76444 172.259 6.18783
-89.2158 -0.256157 -49.8534
-89.2205 -1.16886 -49.7813
-89.2328 -1.57156 -49.6712
-89.2527 -1.88926 -49.5156
-89.2821 -2.13386 -49.307
-89.3232 -2.2951 -49.0387
-89.3805 -2.35647 -48.7042
-89.4538 -2.29799 -48.2971
-89.5442 -2.10227 -47.8117
-89.6521 -1.74758 -47.2426
-89.7768 -1.20855 -46.585
-89.916 -0.458505 -45.8349
-90.1078 0.606169 -44.9975
-90.3059 1.9707 -44.0624
-90.4928 3.6997 -43.0268
-90.679 5.98096 -41.9003
-90.8156 8.82737 -40.6802
-90.8673 11.906 -39.3587
-90.8858 15.3739 -37.9702
-90.7672 19.0642 -36.4833
-90.5773 23.0654 -34.9478
-90.2153 27.2779 -33.328
-89.7617 31.744 -31.692
-89.1166 36.3765 -29.9969
-88.338 41.173 -28.2978
-87.4076 46.0684 -26.5943
-86.3087 51.032 -24.8814
-85.1507 55.9947 -23.2335
-83.8983 60.9364 -21.6301
-82.5639 65.8425 -20.0805
-81.1938 70.695 -18.6257
-79.7762 75.5028 -17.2768
-78.2584 80.2777 -15.9966
-76.6273 85.0197 -14.7824
-74.8626 89.731 -13.6289
-72.914 94.4357 -12.5347
-70.7817 99.1018 -11.4777
-68.4658 103.714 -10.4594
-65.9706 108.255 -9.48079
-63.2925 112.714 -8.54592
-60.4426 117.074 -7.65704
-57.4852 121.287 -6.8045
-54.46 125.332 -5.98688
-51.4052 129.194 -5.20371
-48.3794 132.856 -4.4572
-45.4202 136.311 -3.73815
-42.5445 139.561 -3.0466
-39.7964 142.606 -2.3847
-37.168 145.458 -1.75176
-34.6546 148.127 -1.14732
-32.2868 150.615 -0.578319
-30.0275 152.935 -0.0391049
-27.8919 155.094 0.464936
-25.865 157.096 0.937264
-23.9464 158.949 1.3746
-22.1419 160.654 1.78201
-20.4202 162.222 2.15564
-18.829 163.65 2.50044
-17.3372 164.946 2.81578
-15.9564 166.114 3.10225
-14.7085 167.157 3.36092
-13.5592 168.084 3.59269
-12.3968 168.909 3.79921
-11.3774 169.625 3.98024
-10.4652 170.241 4.13693
-9.56364 170.769 4.27058
-8.68414 171.214 4.38266
-7.85038 171.582 4.47474
-7.07188 171.878 4.54963
-6.35294 172.109 4.60785
-5.68778 172.284 4.6513
-5.04873 172.411 4.68203
-4.05414 172.508 4.70216
-91.1544 -0.979077 -51.8515
-91.1505 -1.82337 -51.7795
-91.1549 -2.24271 -51.6696
-91.1655 -2.57797 -51.5142
-91.1838 -2.84062 -51.3059
-91.2115 -3.02259 -51.0379
-91.2567 -3.09604 -50.7042
-91.3163 -3.04966 -50.2981
-91.3916 -2.86272 -49.8138
-91.4829 -2.51297 -49.246
-91.5898 -1.97414 -48.59
-91.7099 -1.2174 -47.8416
-91.8796 -0.141428 -47.0042
-92.0569 1.25104 -46.0696
-92.2214 3.02454 -45.0344
-92.3789 5.3933 -43.9063
-92.4886 8.3213 -42.6842
-92.5053 11.4848 -41.3599
-92.4829 15.0424 -39.9651
-92.3175 18.8352 -38.4727
-92.0686 22.9353 -36.9257
-91.6435 27.2582 -35.2965
-91.1133 31.8293 -33.6439
-90.3795 36.5704 -31.9299
-89.513 41.4752 -30.215
-88.4765 46.4751 -28.488
-87.2607 51.5411 -26.7494
-85.9984 56.588 -25.0824
-84.6295 61.6041 -23.4513
-83.1841 66.5678 -21.8737
-81.7273 71.4547 -20.4012
-80.2283 76.2807 -19.0283
-78.6413 81.0613 -17.7271
-76.9514 85.7999 -16.4945
-75.1325 90.506 -15.3279
-73.1347 95.1987 -14.218
-70.9563 99.8501 -13.146
-68.5978 104.445 -12.1133
-66.064 108.966 -11.1209
-63.3488 113.405 -10.174
-60.4742 117.738 -9.27242
-57.4982 121.922 -8.40792
-54.4597 125.938 -7.57913
-51.3969 129.77 -6.78612
-48.3667 133.404 -6.03009
-45.4018 136.832 -5.30237
-42.5188 140.058 -4.6029
-39.759 143.082 -3.93406
-37.1128 145.915 -3.29451
-34.5796 148.566 -2.68401
-32.1821 151.04 -2.10914
-29.8921 153.346 -1.56431
-27.7202 155.492 -1.05487
-25.6562 157.482 -0.577295
-23.6972 159.323 -0.134842
-21.8538 161.017 0.277299
-20.0907 162.574 0.655141
-18.4612 163.991 1.00383
-16.9346 165.276 1.32217
-15.5227 166.434 1.61103
-14.2468 167.468 1.87186
-13.0673 168.387 2.10537
-11.8793 169.204 2.3125
-10.8374 169.912 2.49406
-9.91128 170.521 2.65121
-8.99723 171.043 2.78527
-8.10663 171.483 2.89768
-7.25885 171.845 2.99007
-6.46862 172.137 3.06469
-5.73952 172.364 3.12266
-5.06431 172.536 3.16592
-4.41507 172.66 3.19652
-3.34326 172.754 3.21656
-93.0879 -1.89182 -53.8399
-93.0688 -2.86583 -53.7682
-93.0632 -3.30501 -53.6587
-93.0628 -3.65581 -53.5039
-93.0684 -3.93482 -53.2965
-93.0816 -4.13417 -53.0295
-93.1139 -4.2187 -52.6972
-93.1604 -4.17015 -52.2928
-93.2221 -3.97082 -51.8105
-93.2992 -3.59853 -51.2451
-93.391 -3.03119 -50.5919
-93.4951 -2.23968 -49.8467
-93.646 -1.13008 -49.0113
-93.8061 0.297542 -48.0789
-93.9535 2.09522 -47.0463
-94.0925 4.48327 -45.9187
-94.1891 7.45396 -44.6971
-94.1899 10.6647 -43.3734
-94.1404 14.304 -41.9742
-93.9449 18.2014 -40.4791
-93.652 22.4063 -38.9232
-93.1804 26.8487 -37.2874
-92.5863 31.538 -35.6202
-91.7748 36.4036 -33.889
-90.8316 41.4365 -32.1611
-89.693 46.5643 -30.4115
-88.3737 51.7554 -28.6557
-86.9916 56.9191 -26.9634
-85.4948 62.0404 -25.3036
-83.9243 67.0905 -23.6964
-82.3746 72.0308 -22.2077
-80.7838 76.8919 -20.8088
-79.1213 81.6894 -19.4847
-77.3707 86.4309 -18.2327
-75.4985 91.1368 -17.0539
-73.4537 95.8199 -15.9277
-71.233 100.458 -14.8404
-68.8364 105.036 -13.7929
-66.2694 109.538 -12.7861
-63.52 113.96 -11.8281
-60.6263 118.266 -10.9133
-57.6369 122.422 -10.0365
-54.5896 126.41 -9.1963
-51.5233 130.216 -8.39405
-48.4936 133.821 -7.62838
-45.5276 137.224 -6.89202
-42.6419 140.428 -6.18479
-39.8771 143.431 -5.50951
-37.2179 146.247 -4.86348
-34.6709 148.881 -4.24737
-32.2479 151.341 -3.66666
-29.9322 153.634 -3.11618
-27.7273 155.768 -2.60173
-25.6307 157.746 -2.11877
-23.632 159.577 -1.67153
-21.7546 161.26 -1.25454
-19.9483 162.807 -0.872771
-18.2788 164.214 -0.520464
-16.7188 165.49 -0.199088
-15.2722 166.64 0.0919412
-13.9648 167.665 0.354731
-12.7714 168.575 0.589855
-11.5093 169.388 0.797441
-10.4025 170.092 0.979405
-9.39483 170.698 1.1369
-8.40686 171.216 1.27125
-7.44373 171.652 1.38391
-6.53544 172.011 1.47647
-5.69368 172.298 1.55069
-4.92545 172.522 1.60835
-4.22266 172.69 1.65139
-3.55176 172.81 1.68183
-2.52472 172.898 1.70177
-94.9669 -4.13384 -55.8296
-94.9251 -5.0525 -55.7581
-94.9036 -5.51178 -55.649
-94.8869 -5.88548 -55.4947
-94.8754 -6.18653 -55.288
-94.8708 -6.40529 -55.0218
-94.8879 -6.50839 -54.6904
-94.9209 -6.47974 -54.2872
-94.9699 -6.30076 -53.8062
-95.0359 -5.94932 -53.2424
-95.1189 -5.39626 -52.591
-95.2172 -4.61233 -51.8479
-95.3656 -3.50018 -51.0133
-95.5304 -2.04545 -50.0819
-95.6879 -0.185503 -49.0504
-95.8407 2.32536 -47.9222
-95.9604 5.4066 -46.6993
-95.9796 8.73915 -45.3742
-95.9425 12.5052 -43.9693
-95.7559 16.554 -42.4691
-95.4542 20.931 -40.9027
-94.9647 25.571 -39.2577
-94.3283 30.4688 -37.5745
-93.4521 35.5545 -35.8247
-92.4346 40.8131 -34.0805
-91.1887 46.1665 -32.3069
-89.7514 51.5774 -30.5318
-88.2248 56.9489 -28.8117
-86.5705 62.2607 -27.1227
-84.8388 67.4764 -25.486
-83.1579 72.536 -23.9775
-81.441 77.4878 -22.553
-79.6718 82.3471 -21.2064
-77.8337 87.1266 -19.9347
-75.8889 91.855 -18.7408
-73.7797 96.5489 -17.5977
-71.4991 101.192 -16.4943
-69.0465 105.77 -15.4312
-66.4273 110.267 -14.4096
-63.6304 114.681 -13.4379
-60.698 118.974 -12.5095
-57.6768 123.113 -11.6199
-54.6052 127.081 -10.7677
-51.5231 130.864 -9.95407
-48.4845 134.446 -9.17803
-45.512 137.826 -8.43205
-42.621 141.009 -7.71588
-39.8459 143.993 -7.03238
-37.1734 146.792 -6.37889
-34.6086 149.412 -5.75554
-32.1587 151.86 -5.16832
-29.8128 154.142 -4.61171
-27.5695 156.266 -4.09089
-25.43 158.235 -3.60233
-23.3847 160.058 -3.14913
-21.4555 161.733 -2.72711
-19.596 163.273 -2.34041
-17.8774 164.672 -1.98354
-16.263 165.94 -1.65893
-14.7707 167.082 -1.36496
-13.422 168.1 -1.09952
-12.1605 169.004 -0.862522
-10.9064 169.807 -0.653937
-9.80661 170.502 -0.4711
-8.85265 171.098 -0.312844
-7.91889 171.607 -0.177849
-7.00523 172.036 -0.0646511
