-35.190109 5.732172 -10.026289
-35.393024 5.563437 -10.136832
-35.592045 5.576993 -10.162648
-35.389057 5.745729 -10.052176
-35.377377 6.006188 -10.199063
-35.588226 5.757987 -10.073521
-35.787392 5.769814 -10.094216
-35.576904 6.013976 -10.207644
-34.369358 6.211844 -10.257256
-34.356739 6.481101 -10.430174
-34.35054 6.61508 -10.515335
-34.141205 6.918372 -10.491179
-34.449905 6.622868 -10.531054
-34.345634 6.734925 -10.558167
-34.44529 6.740406 -10.566605
-34.5686 6.222516 -10.274129
-34.456181 6.487734 -10.442864
-34.76791 6.233044 -10.29057
-34.754929 6.506627 -10.476756
-34.549488 6.62878 -10.54079
-34.544804 6.746607 -10.577853
-34.644527 6.751943 -10.586434
-34.641571 6.85232 -10.571724
-34.340733 6.926881 -10.501779
-34.655346 6.500281 -10.465219
-34.649071 6.634405 -10.550524
-34.854584 6.511098 -10.482814
-34.748653 6.640462 -10.561269
-34.744328 6.755404 -10.589319
-34.54026 6.935101 -10.511585
-34.739571 6.945485 -10.527882
-34.741371 6.856502 -10.576772
-34.839008 6.952407 -10.541078
-34.725147 7.660377 -10.146495
-34.73243 7.302426 -10.335422
-34.954021 6.518309 -10.496802
-35.153477 6.527683 -10.509854
-34.966713 6.24862 -10.321938
-34.848526 6.644068 -10.564442
-34.844055 6.759443 -10.594151
-34.841026 6.861549 -10.584055
-34.940826 6.864867 -10.586795
-34.944 6.761606 -10.593141
-35.040627 6.868761 -10.591049
-34.939026 6.955003 -10.541511
-35.143383 6.771845 -10.608788
-35.343124 6.778191 -10.613259
-35.038464 6.961782 -10.55413
-35.138046 6.967262 -10.563215
-35.353077 6.535471 -10.518508
-35.752636 6.54672 -10.52269
-35.54229 6.789008 -10.630493
-35.337357 6.978222 -10.581026
-35.553036 6.538788 -10.513748
-35.741673 6.798959 -10.645708
-35.536667 6.98875 -10.597611
-35.735905 6.999711 -10.615855
-35.522099 7.704364 -10.218605
-36.317757 7.761907 -10.330879
-34.71051 8.376423 -9.768714
-34.695801 9.0942 -9.395981
-35.507607 8.419544 -9.838227
-35.492825 9.137465 -9.465855
-34.679718 9.825389 -9.063124
-35.078701 9.842262 -9.084036
-34.272301 10.177859 -8.886817
-33.96389 10.542012 -8.738272
-34.262566 10.560328 -8.770432
-34.461876 10.570711 -8.786729
-34.661114 10.582105 -8.805694
-34.671352 10.194157 -8.906359
-35.477104 9.865193 -9.12247
-35.070045 10.214347 -8.93686
-34.860641 10.589892 -8.814346
-35.458931 10.61715 -8.851627
-35.468956 10.23223 -8.960656
-35.060242 10.59768 -8.823071
-35.858273 10.630995 -8.863236
-34.062244 10.630995 -8.681953
-33.964684 10.67628 -8.511199
-34.161686 10.709739 -8.595567
-34.063255 10.549367 -8.752549
-34.161469 10.640946 -8.704308
-34.063183 10.692864 -8.553022
-34.071045 10.756033 -8.114597
-34.360924 10.791799 -8.511703
-34.16291 10.554992 -8.761779
-34.260548 10.65133 -8.727816
-34.260258 10.725891 -8.636381
-34.36013 10.657676 -8.739497
-34.359264 10.737573 -8.663638
-34.267036 10.800019 -8.230765
-34.459282 10.810259 -8.55944
-34.28492 10.904289 -7.288584
-33.882046 10.784011 -7.586396
-34.079193 10.816316 -7.668168
-34.087845 10.871408 -7.205658
-34.186489 10.886839 -7.244309
-33.988552 10.86261 -7.186982
-34.458344 10.748389 -8.688588
-34.463173 10.84242 -8.34167
-34.658806 10.889579 -8.466924
-34.558071 10.824536 -8.594052
-34.557423 10.75935 -8.713393
-34.855377 10.785886 -8.770648
-34.656284 10.844295 -8.645611
-34.65657 10.769156 -8.735459
-34.755074 10.857851 -8.678565
-34.756805 10.911356 -8.524323
-34.480984 10.947556 -7.402229
-33.990353 10.91626 -7.033606
-34.089287 10.99933 -6.960054
-34.188725 10.936018 -7.077376
-34.188511 11.008848 -6.980317
-34.284992 11.188689 -6.881455
-34.386162 10.965438 -7.150207
-34.287659 11.019376 -7.004257
-34.287731 10.947844 -7.104994
-34.386955 11.02774 -7.022068
-34.276844 11.555149 -6.71755
-34.675465 11.57606 -6.750288
-34.781536 11.089611 -7.176527
-34.485889 11.040432 -7.052354
-34.584679 11.054853 -7.087615
-34.484303 11.199361 -6.898689
-34.585037 11.122204 -6.975125
-34.677197 10.989379 -7.512052
-34.879894 11.107493 -7.222316
-34.68325 11.213062 -6.924072
-34.684261 11.131722 -6.995893
-34.782619 11.22085 -6.940224
-34.683323 11.069853 -7.125185
-34.783413 11.141962 -7.018823
-34.87867 11.405017 -6.853693
-34.954887 10.792088 -8.78161
-34.854008 10.869677 -8.706326
-34.854294 10.938902 -8.598812
-35.254574 10.800308 -8.783916
-34.952797 10.883955 -8.740868
-35.052525 10.889003 -8.748872
-34.902824 10.954189 -8.640491
-34.952076 10.962554 -8.661619
-35.05476 10.795115 -8.783123
-35.152325 10.89232 -8.751539
-35.051659 10.968467 -8.671715
-35.151024 10.976975 -8.68967
-34.863598 10.98736 -8.116833
-35.06781 11.090043 -7.781164
-35.059013 11.036826 -8.249153
-34.961308 11.011444 -8.18101
-34.859127 10.961112 -8.351981
-34.903835 10.979716 -8.559945
-34.856892 10.947988 -8.469592
-34.908306 10.970342 -8.375706
-34.952724 10.991686 -8.591889
-34.957268 10.981302 -8.404405
-35.002335 10.996301 -8.601696
-35.005363 11.001204 -8.460145
-35.053535 11.020386 -8.513074
-35.250103 10.98736 -8.713393
-35.3494 10.996446 -8.733151
-35.151676 11.04173 -8.569319
-35.250248 11.057738 -8.609556
-35.157009 11.058892 -8.30749
-35.250824 11.086582 -8.538456
-35.348461 11.077352 -8.660465
-35.202007 11.074324 -8.505791
-35.254646 11.084418 -8.375489
-35.206116 11.068411 -8.331935
-35.448189 11.152058 -8.561964
-35.263733 11.134895 -7.899784
-35.551376 11.193592 -8.365033
-35.447395 11.089322 -8.688372
-35.546547 11.170662 -8.609556
-35.44862 11.00654 -8.755362
-35.546761 11.097399 -8.705173
-35.350769 11.125233 -8.489422
-35.647858 11.230657 -8.467645
-35.271736 11.196909 -7.458258
-34.87254 11.039711 -7.646463
-34.98027 11.176863 -7.108239
-34.881767 11.231378 -6.96402
-34.88213 11.156672 -7.055455
-34.980991 11.240319 -6.98349
-35.075886 11.152058 -7.339926
-35.467297 11.244934 -7.586396
-35.276424 11.291517 -7.113647
-35.079926 11.253732 -7.01565
-35.178715 11.267288 -7.048604
-35.07365 11.60101 -6.794852
-35.077763 11.417852 -6.877201
-35.273178 11.609519 -6.805884
-35.178642 11.339109 -6.949093
-35.374783 11.309977 -7.161023
-35.865341 11.413671 -7.432082
-35.276642 11.431553 -6.903376
-35.277794 11.349493 -6.972529
-35.375862 11.44136 -6.925009
-35.376511 11.364635 -7.010314
-35.472343 11.621057 -6.825426
-35.475517 11.375308 -7.034615
-35.473427 11.325697 -7.199818
-35.573875 11.393623 -7.081342
-35.475159 11.45059 -6.945271
-35.574306 11.46083 -6.968058
-35.671295 11.635911 -6.854702
-34.26004 12.293982 -6.406903
-34.658951 12.310999 -6.428608
-34.051933 12.656692 -6.246532
-34.650658 12.680055 -6.272347
-34.047104 12.847204 -6.186393
-34.046455 12.925227 -6.104909
-34.245258 13.01147 -6.033521
-34.145462 12.936765 -6.13195
-34.146469 12.855425 -6.203627
-34.251678 12.66246 -6.249488
-34.445652 12.869125 -6.221942
-34.245045 12.942966 -6.143199
-34.146324 12.999211 -6.004821
-34.246269 12.859175 -6.207304
-34.451061 12.671546 -6.261891
-34.645393 12.87475 -6.224322
-34.641716 13.05387 -6.130291
-34.845066 12.882106 -6.231894
-34.442696 13.041179 -6.107072
-34.840668 13.068004 -6.157909
-35.057499 12.332776 -6.464158
-35.86224 12.014629 -6.712575
-35.049133 12.701832 -6.307825
-34.93996 13.077089 -6.177163
-35.44725 12.727936 -6.356066
-35.455688 12.357582 -6.508433
-35.039257 13.086031 -6.196488
-35.138695 13.09353 -6.211559
-35.437733 13.10824 -6.233119
-34.345348 13.154246 -5.824692
-34.242229 13.326444 -5.71696
-34.246124 13.145305 -5.805295
-34.444427 13.165928 -5.851877
-34.44392 13.242076 -5.764914
-34.232567 13.7092 -5.601585
-34.631767 13.724054 -5.616512
-34.840092 13.145161 -6.073902
-34.344265 13.236739 -5.756476
-34.441685 13.335529 -5.729724
-34.541485 13.339567 -5.73369
-34.543503 13.247844 -5.774504
-34.543575 13.176744 -5.876178
-34.642872 13.256785 -5.793757
-34.641212 13.344038 -5.73982
-34.642727 13.186263 -5.897234
-34.741947 13.266737 -5.816255
-34.74094 13.348221 -5.745083
-35.030602 13.742226 -5.640741
-34.610783 14.504566 -5.429677
-35.409103 14.534564 -5.460468
-34.939674 13.22275 -5.983477
-34.840813 13.209049 -5.950667
-34.840378 13.356297 -5.761813
-34.939167 13.156554 -6.100222
-35.038174 13.167515 -6.125532
-35.03875 13.233278 -6.00785
-35.137108 13.180782 -6.157549
-35.039185 13.372017 -5.793468
-35.138191 13.383121 -5.819428
-35.236546 13.471816 -5.762318
-35.235897 13.265439 -6.088757
-35.236259 13.190589 -6.179326
-35.334904 13.277409 -6.116879
-35.238205 13.099875 -6.22324
-35.335842 13.196358 -6.189205
-35.236546 13.401437 -5.866443
-35.43391 13.288946 -6.143776
-35.433765 13.432877 -5.944971
-35.729992 13.404466 -6.151852
-35.234673 13.56253 -5.71898
-35.429295 13.761984 -5.670162
-35.729702 13.69175 -5.752871
-35.43362 13.576807 -5.746886
-35.334255 13.568009 -5.727921
-35.137035 13.465758 -5.751573
-35.335552 13.483931 -5.791378
-35.729992 13.618053 -5.847262
-35.81818 14.165941 -5.588606
-34.587997 15.302817 -5.295842
-34.564342 16.110874 -5.190995
-35.386608 15.330507 -5.319854
-35.363171 16.135969 -5.207364
-34.53968 16.928307 -5.113838
-34.514515 17.750786 -5.051896
-35.338509 16.953402 -5.130063
-35.313416 17.77516 -5.066246
-34.488918 18.577736 -5.00351
-34.462742 19.410168 -4.970917
-35.287529 18.604849 -5.025504
-35.261642 19.434973 -4.985988
-34.436565 20.242886 -4.939333
-34.236679 20.23856 -4.94128
-34.023956 20.647852 -4.918782
-34.410461 21.07546 -4.907317
-34.422722 20.666601 -4.94539
-34.037079 20.230917 -4.932988
-34.229828 20.449984 -4.942722
-34.429066 20.461666 -4.962697
-34.629604 20.459215 -4.941208
-34.836052 20.255289 -4.946688
-35.235321 20.269567 -4.960101
-34.82235 20.677273 -4.947842
-35.208641 21.107044 -4.94265
-34.622536 20.672659 -4.948491
-34.383781 21.912651 -4.889073
-34.357319 22.748398 -4.866214
-35.182034 21.943659 -4.922892
-35.155495 22.781136 -4.904576
-35.100983 24.468063 -4.905514
-35.04517 26.16898 -4.947409
-34.988346 27.879414 -5.017644
-34.931309 29.59201 -5.094657
-34.078613 31.247355 -5.059539
-34.875927 31.287735 -5.121049
-33.654469 32.052814 -4.976325
-34.052944 32.075169 -5.013534
-34.040974 32.480713 -4.965797
-34.031528 32.860153 -4.839966
-34.450844 32.103149 -5.067039
-34.849174 32.127087 -5.109511
-34.438728 32.509556 -5.021898
-34.836628 32.537968 -5.076918
-34.42849 32.897217 -4.921162
-34.825741 32.932117 -4.99529
-35.234962 32.561474 -5.11766
-35.222992 32.966152 -5.067327
-34.809227 33.667778 -4.675773
-33.417011 33.707726 -4.271023
-33.21936 33.680325 -4.204466
-33.318005 33.695755 -4.242612
-33.415859 33.790508 -4.20389
-33.514431 33.80695 -4.245136
-33.512123 33.900833 -4.211101
-33.413189 33.888 -4.180093
-33.316708 33.779835 -4.179372
-33.611202 33.911652 -4.235906
-33.603703 34.271908 -4.053397
-35.21405 33.341412 -4.92967
-34.000233 34.313446 -4.147572
-34.793724 34.39262 -4.323952
-34.763798 35.83279 -3.592258
-34.73481 37.263294 -2.831937
-34.704956 38.702599 -2.097791
-34.675175 40.141037 -1.360617
-36.259995 40.321453 -1.7795
-34.644459 41.588703 -0.651565
-36.229061 41.771141 -1.076073
-33.8046 43.683914 0.580351
-34.612583 43.047909 0.023378
-33.787292 44.427361 0.877225
-34.579704 44.518074 0.666233
-33.382183 44.75647 1.122758
-33.183666 44.738152 1.16213
-33.377712 44.944096 1.191406
-33.575726 44.967892 1.135521
-33.570461 45.162731 1.183185
-33.669609 45.172684 1.160687
-33.371437 45.149754 1.206477
-33.176239 45.027023 1.243613
-33.768978 45.18148 1.141795
-33.079758 44.917992 1.246642
-33.171551 45.145569 1.204458
-33.275532 45.035389 1.226163
-33.271641 45.145859 1.211092
-33.666004 45.28056 1.153188
-33.322044 46.216537 0.543864
-33.723186 46.211926 0.586625
-33.748714 45.669949 0.943854
-33.760612 45.407761 1.095717
-33.948746 45.672832 0.949551
-33.765514 45.287048 1.14129
-33.86034 45.412231 1.090453
-33.865101 45.293106 1.130618
-34.12397 46.210339 0.620877
-33.868343 45.189556 1.124993
-34.759617 45.292675 0.884725
-33.964684 45.299454 1.119657
-33.967422 45.20052 1.100332
-34.063759 45.310123 1.095068
-33.960426 45.412663 1.096005
-34.060516 45.414394 1.098457
-34.148994 45.673988 0.961233
-34.165577 45.222008 1.050937
-34.160099 45.419731 1.08966
-34.255066 45.543468 1.043005
-34.259392 45.428528 1.070623
-34.363377 45.247967 0.988346
-34.556843 45.459534 1.000965
-34.349384 45.673412 0.977169
-34.354794 45.547218 1.038967
-34.449257 45.676441 0.975727
-34.358616 45.438046 1.050144
-34.454521 45.552269 1.031107
-34.561531 45.269886 0.937869
-34.755001 45.481888 0.949263
-34.548985 45.680622 0.970463
-34.936283 45.958244 0.801799
-33.669609 47.320099 -0.199079
-33.240559 47.890053 -0.668006
-32.921333 48.292423 -0.9457
-33.215393 48.428135 -1.013555
-33.315411 48.429577 -1.01031
-33.815777 48.435055 -0.990335
-33.028053 48.155128 -0.843449
-33.0163 48.415874 -0.991705
-34.4706 47.323708 -0.151343
-34.524036 46.216396 0.632414
-33.615601 48.433037 -0.9987
-34.416016 48.442123 -0.967332
-34.216057 48.438805 -0.971731
-33.202484 48.843483 -0.994301
-33.400715 48.864395 -1.041966
-33.588055 49.279747 -1.008651
-33.207748 48.647057 -1.037567
-33.310722 48.548557 -1.050763
-33.410088 48.556198 -1.065834
-33.406555 48.663067 -1.07016
-33.505707 48.673016 -1.092586
-34.003334 48.705898 -1.153375
-33.50967 48.562546 -1.077443
-33.605 48.681526 -1.110686
-33.803951 48.69566 -1.137511
-33.598942 48.885162 -1.089197
-33.797028 48.908237 -1.142919
-33.5639 50.091984 -0.916063
-34.102989 48.710514 -1.159937
-34.098011 48.831947 -1.207529
-34.015953 48.436066 -0.978942
-34.203148 48.711525 -1.155971
-33.995041 48.931744 -1.198082
-34.197525 48.838867 -1.220581
-33.593319 49.084763 -1.05545
-33.790825 49.112885 -1.124747
-33.988766 49.136826 -1.180992
-33.786068 49.302677 -1.0623
-33.984367 49.32373 -1.109676
-34.403252 48.713543 -1.146957
-34.19363 48.948765 -1.233777
-34.292923 48.958138 -1.2544
-34.297249 48.843052 -1.225772
-34.603355 48.715851 -1.139025
-34.392147 48.967369 -1.27459
-34.591022 48.982655 -1.305021
-34.686569 49.100193 -1.333936
-34.187572 49.152546 -1.212865
-34.584103 49.194225 -1.307472
-34.182308 49.347527 -1.166138
-34.380394 49.371037 -1.221013
-33.960426 50.134384 -1.012906
-33.539959 50.902782 -0.819364
-34.309292 51.793335 -0.901497
-34.333523 50.981239 -0.994229
-33.948528 50.538055 -0.959617
-34.345058 50.57959 -1.053575
-34.357822 50.167702 -1.082131
-34.741734 50.620548 -1.145803
-34.260693 53.422428 -0.730093
-34.212666 55.04388 -0.536407
-34.16428 56.67009 -0.356638
-34.114887 58.305531 -0.204271
-34.064411 59.952076 -0.085291
-34.013573 61.603237 0.020638
-33.962158 63.258434 0.113876
-33.910385 64.918541 0.192907
-33.858971 66.5746 0.284198
-33.807556 68.231384 0.373181
-33.75499 69.899277 0.429282
-33.344902 70.277565 0.528721
-32.934746 70.657722 0.622535
-33.741577 70.318375 0.436853
-33.139606 70.470238 0.567948
-33.338123 70.488411 0.529009
-33.133984 70.669403 0.602705
-33.331707 70.695221 0.540619
-33.728237 70.737473 0.444425
-32.907631 71.500534 0.624338
-32.921188 71.079132 0.623256
-33.31815 71.116913 0.541196
-33.701267 71.578125 0.452645
-33.120136 71.093262 0.596143
-33.325359 70.901596 0.554103
-32.928326 70.865112 0.632414
-33.127419 70.877365 0.611214
-33.646248 73.270676 0.4357
-32.045204 73.973312 0.780238
-37.488739 -65.774223 -47.413342
-37.168861 -66.032661 -47.521507
-37.854984 -65.213066 -46.54911
-38.126186 -65.254318 -47.212013
-37.867241 -64.767433 -45.369041
-38.428829 -65.006691 -47.118271
-38.641842 -64.497025 -46.113281
-38.631599 -64.837669 -47.049622
-38.544708 -64.911507 -47.083225
-38.66333 -63.574886 -43.844433
-38.653088 -64.04187 -44.961407
-39.438503 -63.311256 -44.567905
-38.671406 -63.086994 -42.789543
-38.677101 -62.575306 -41.805538
-39.447517 -62.833172 -43.484173
-39.454872 -62.337925 -42.451134
-38.679985 -62.035065 -40.905472
-38.680275 -61.46843 -40.084576
-39.458984 -61.809795 -41.515804
-39.460644 -61.256859 -40.653881
-38.678112 -60.877132 -39.336731
-38.673641 -60.26276 -38.656883
-39.459633 -60.677967 -39.869259
-38.666862 -59.625313 -38.04583
-37.870632 -59.108288 -37.136169
-38.657776 -58.964214 -37.505299
-39.843109 -59.365574 -38.729065
-39.443985 -58.812496 -37.896996
-38.647392 -58.291 -37.000027
-38.634628 -57.592838 -36.569389
-39.434753 -58.149811 -37.360863
-39.42329 -57.464916 -36.890636
-38.606941 -56.175457 -35.76984
-38.577446 -54.739902 -35.024734
-38.621506 -56.891071 -36.148991
-39.410816 -56.770069 -36.449688
-38.561871 -54.014339 -34.675293
-38.546295 -53.287766 -34.328373
-38.514782 -51.83202 -33.642685
-38.482552 -50.368488 -32.980289
-38.449814 -48.900486 -32.331234
-38.417076 -47.432774 -31.681816
-38.384697 -45.967796 -31.02389
-37.557747 -44.571182 -30.220808
-38.352467 -44.504986 -30.359402
-37.541668 -43.840714 -29.886293
-38.328308 -43.408493 -29.858818
-38.321316 -43.052704 -29.663691
-38.336384 -43.773796 -30.026257
-38.291245 -41.611816 -28.933872
-37.069569 -40.275051 -27.983398
-38.262402 -40.182751 -28.169224
-37.452324 -39.525978 -27.673832
-38.233845 -38.756428 -27.396427
-38.248051 -39.468578 -27.785963
-37.062141 -39.915657 -27.797934
-37.459606 -39.883064 -27.866005
-37.466888 -40.241302 -28.053993
-38.205795 -37.335873 -26.606758
-38.177959 -35.916759 -25.812328
-38.163971 -35.206196 -25.418684
-38.14991 -34.495338 -25.02504
-38.122437 -33.080265 -24.218639
-38.109673 -32.382969 -23.785479
-38.09655 -31.681345 -23.365082
-38.069942 -30.274923 -22.53294
-38.042683 -28.861435 -21.722429
-38.08321 -30.978134 -22.948866
-38.028549 -28.150724 -21.328424
-38.014057 -27.434679 -20.950644
-37.986221 -26.016287 -20.154339
-37.957809 -24.591263 -19.377504
-38.000069 -26.72541 -20.552526
-37.928894 -23.162199 -18.613289
-37.899113 -21.723616 -17.876764
-37.868252 -20.274218 -17.172544
-37.835659 -18.807224 -16.520531
-37.800827 -17.3186 -15.932768
-37.763981 -15.808628 -15.4081
-39.358681 -15.728154 -15.529964
-39.319382 -14.193378 -15.07892
-36.8867 -12.7672 -14.480774
-37.253445 -11.57177 -14.244904
-37.641323 -11.158295 -14.191543
-37.651707 -11.547253 -14.288674
-37.258133 -11.761417 -14.308577
-37.058823 -11.772234 -14.290693
-37.065025 -11.976015 -14.311677
-36.865498 -11.984813 -14.300356
-37.26376 -11.960151 -14.344342
-37.457806 -11.753919 -14.315498
-37.657402 -11.746852 -14.322205
-37.46249 -11.943998 -14.377225
-37.662666 -11.942123 -14.368283
-36.876171 -12.376944 -14.387753
-37.274719 -12.354589 -14.424817
-37.683651 -12.722347 -14.555911
-37.269382 -12.159173 -14.379315
-37.46862 -12.148068 -14.397776
-37.597046 -9.573908 -13.888106
-37.551689 -7.978704 -13.616399
-37.505108 -6.370954 -13.381682
-37.457947 -4.757867 -13.163263
-37.43343 -3.941733 -13.082356
-37.409058 -3.12733 -12.996474
-37.360817 -1.502561 -12.812306
-37.314236 0.105045 -12.577591
-36.472572 1.649195 -12.21279
-37.269238 1.696067 -12.29384
-36.452457 2.420189 -11.998336
-37.248905 2.470377 -12.088834
-36.434933 3.166377 -11.709899
-38.045425 2.519123 -12.17522
-37.231094 3.21844 -11.805948
-36.419788 3.888191 -11.349208
-37.21566 3.943427 -11.454559
-36.406448 4.592124 -10.935371
-37.201962 4.651109 -11.052189
-35.790924 5.591847 -10.191708
-35.687737 5.764189 -10.084769
-35.986485 5.782217 -10.116498
-35.68211 5.892399 -10.15248
-35.776215 6.024648 -10.225166
-35.781982 5.895717 -10.155149
-35.876015 6.02811 -10.227547
-35.735329 5.82577 -10.107556
-35.785587 5.823751 -10.097894
-35.882214 5.894707 -10.144836
-35.737492 5.767362 -10.090755
-35.935143 5.830097 -10.106114
-35.886974 5.775582 -10.104383
-35.990017 5.604395 -10.214495
-36.036312 5.785389 -10.122483
-35.835415 5.826347 -10.102076
-35.832172 5.894274 -10.147432
-35.982014 5.898601 -10.149019
-36.081814 5.901918 -10.151255
-35.985115 5.831107 -10.105393
-35.936729 5.778755 -10.109792
-36.035015 5.833558 -10.108998
-35.975811 6.031426 -10.230214
-36.075974 6.03258 -10.226464
-36.188896 5.619393 -10.243987
-36.185722 5.79361 -10.135751
-36.031624 5.902927 -10.158032
-36.086067 5.788706 -10.128107
-36.08477 5.837452 -10.116426
-36.135895 5.790581 -10.130127
-36.134743 5.838173 -10.114911
-36.131786 5.903072 -10.151182
-36.181686 5.904802 -10.152697
-36.234398 5.843509 -10.123709
-36.184498 5.84149 -10.121113
-36.175484 6.038349 -10.236416
-36.285378 5.798224 -10.141953
-36.384815 5.805724 -10.157095
-36.387917 5.632373 -10.26836
-36.334053 5.848125 -10.130198
-36.231873 5.903793 -10.146207
-36.282063 5.902639 -10.139213
-36.381931 5.906389 -10.142817
-36.275429 6.040657 -10.235983
-36.375443 6.042243 -10.232882
-36.384026 5.849134 -10.129261
-36.431904 5.907687 -10.14325
-36.33506 5.802551 -10.151038
-36.433853 5.852739 -10.136328
-36.394047 5.285671 -10.49089
-36.792019 5.313073 -10.542736
-37.189342 5.347108 -10.614269
-36.586941 5.645497 -10.292877
-36.786034 5.657756 -10.314438
-36.484402 5.811493 -10.166686
-36.783077 5.830241 -10.200505
-36.482021 5.90711 -10.13777
-36.47546 6.044694 -10.233171
-36.67614 6.041378 -10.208509
-36.581604 5.912879 -10.147432
-36.584057 5.816973 -10.176132
-36.681404 5.916484 -10.150822
-36.575691 6.043685 -10.222787
-36.68364 5.823319 -10.187165
-36.780914 5.923262 -10.163874
-36.776081 6.043252 -10.206923
-36.984623 5.676216 -10.354675
-37.183357 5.692368 -10.387774
-36.882515 5.83774 -10.215504
-36.981884 5.84625 -10.233387
-36.880856 5.92557 -10.163441
-36.980297 5.933502 -10.179738
-36.876099 6.044839 -10.204399
-36.975826 6.048733 -10.208293
-37.079517 5.942299 -10.197982
-37.075626 6.052338 -10.211754
-37.081032 5.855912 -10.254731
-37.180328 5.864998 -10.274489
-37.178524 5.954125 -10.226176
-37.17593 6.051906 -10.203462
-36.15176 6.562584 -10.540861
-35.9412 6.807612 -10.65667
-35.934925 7.012835 -10.639939
-35.952232 6.554219 -10.530406
-36.140221 6.820591 -10.68061
-36.351501 6.568064 -10.542088
-36.339893 6.827658 -10.686883
-36.133804 7.027545 -10.668856
-36.333115 7.038073 -10.685441
-36.539562 6.834725 -10.69294
-36.535091 6.950388 -10.723371
-36.72229 7.438713 -10.59379
-36.563866 6.304432 -10.371332
-36.551678 6.570084 -10.533434
-36.76339 6.31323 -10.382437
-36.749401 6.596476 -10.59689
-36.531921 7.05336 -10.71616
-36.738441 6.84857 -10.719477
-36.638714 6.844099 -10.713635
-36.634171 6.961205 -10.748609
-36.631359 7.06086 -10.731375
-36.733898 6.965675 -10.754305
-36.730724 7.069224 -10.748897
-37.369541 6.190644 -10.287685
-36.948639 6.607725 -10.615855
-37.141315 6.755549 -10.727192
-37.04195 6.747617 -10.71104
-36.937462 6.862126 -10.745292
-37.136269 6.877414 -10.776011
-37.23542 6.88823 -10.801032
-37.048584 6.6096 -10.614557
-37.148384 6.613349 -10.618235
-37.240971 6.761173 -10.736494
-36.929386 7.086098 -10.784086
-37.128265 7.100953 -10.813651
-37.119682 7.472172 -10.664024
-36.302975 8.479828 -9.958867
-37.112328 7.830988 -10.477045
-36.92477 7.274736 -10.718395
-37.516647 7.509092 -10.744571
-37.123287 7.292764 -10.75755
-36.288261 9.197316 -9.585124
-37.097256 8.552082 -10.114407
-37.082115 9.273752 -9.752995
-36.685226 9.234669 -9.666679
-36.280762 9.55743 -9.402327
-35.866928 10.25992 -9.013585
-35.874931 9.893748 -9.178427
-36.272327 9.926631 -9.246715
-36.263962 10.296119 -9.09168
-36.255524 10.665607 -8.9365
-36.678085 9.591755 -9.474869
-36.669792 9.959657 -9.31529
-37.07476 9.632568 -9.566664
-37.066322 10.001336 -9.409754
-36.651836 10.709883 -9.038896
-37.048801 10.746802 -9.119153
-35.648075 11.01505 -8.766106
-36.046623 11.036682 -8.801079
-35.645409 11.184218 -8.642871
-35.751122 11.270749 -8.266171
-35.745567 11.255174 -8.532904
-35.744125 11.198929 -8.678926
-35.847168 11.027164 -8.787594
-36.041431 11.230945 -8.752116
-35.843204 11.281133 -8.602994
-35.653629 11.24378 -8.19399
-35.893967 11.309833 -8.528145
-35.843132 11.210754 -8.707048
-35.941631 11.298439 -8.646548
-35.942352 11.326995 -8.57516
-35.848972 11.29368 -8.327248
-36.245716 11.049086 -8.823504
-35.942211 11.221282 -8.730412
-36.040207 11.314303 -8.686713
-35.946823 11.316755 -8.388685
-35.898079 11.304208 -8.354938
-36.041721 11.369972 -8.538816
-36.139717 11.320937 -8.698972
-35.991173 11.339109 -8.607537
-35.994129 11.345454 -8.46952
-36.141232 11.23455 -8.755578
-36.240524 11.243636 -8.775264
-36.140148 11.387423 -8.583597
-36.238796 11.332331 -8.725724
-36.338161 11.340695 -8.742958
-36.238796 11.402998 -8.622536
-36.336937 11.423621 -8.675969
-35.662857 11.293103 -7.714607
-35.669926 11.364058 -7.299473
-36.06155 11.455638 -7.541904
-35.951366 11.342426 -8.151878
-35.857914 11.346464 -7.858176
-36.256245 11.512316 -7.69557
-36.066887 11.544188 -7.178762
-35.673386 11.471934 -6.993801
-35.870533 11.503663 -7.073771
-35.969685 11.585723 -6.996686
-36.26252 11.591925 -7.306035
-35.869812 11.653938 -6.893641
-36.053619 11.392902 -7.981195
-36.248604 11.446984 -8.126856
-36.049221 11.366654 -8.216632
-36.339748 11.466455 -8.490864
-36.458801 11.632017 -7.410305
-35.968529 11.525584 -7.131098
-36.067535 11.680042 -6.956305
-36.068184 11.602164 -7.038004
-36.166542 11.691868 -6.984283
-36.165966 11.626537 -7.103191
-36.265186 11.706867 -7.021636
-36.643112 11.082399 -8.89309
-36.439766 11.255318 -8.795094
-36.435871 11.43588 -8.705245
-36.535454 11.442802 -8.718513
-37.040291 11.117589 -8.967939
-36.634388 11.45434 -8.74577
-36.733608 11.464436 -8.768125
-37.031925 11.485924 -8.809804
-36.244492 11.417131 -8.351477
-36.535236 11.515489 -8.621382
-36.345516 11.479578 -8.216488
-36.443081 11.506114 -8.28802
-36.437023 11.49573 -8.569752
-36.585571 11.54837 -8.558935
-36.451229 11.566254 -7.840942
-36.540936 11.529189 -8.348808
-36.633595 11.533804 -8.668686
-36.732529 11.546495 -8.698972
-36.634243 11.562793 -8.598091
-36.590328 11.536256 -8.366404
-36.734402 11.598847 -8.541197
-36.639076 11.549668 -8.402602
-36.642895 11.581973 -8.185698
-36.646862 11.613269 -7.965764
-36.654865 11.675859 -7.525897
-36.462551 11.737297 -7.097062
-36.856556 11.804214 -7.266519
-36.659843 11.767727 -7.173065
-37.052624 11.846903 -7.378793
-36.831608 11.557024 -8.72248
-36.880714 11.63793 -8.646115
-36.683277 11.57332 -8.625853
-36.686737 11.574474 -8.472476
-36.831749 11.627402 -8.618498
-36.832977 11.472078 -8.78334
-36.929962 11.646584 -8.668109
-36.739956 11.613702 -8.272445
-36.745003 11.634469 -8.02136
-36.84264 11.659852 -8.089143
-36.838455 11.630719 -8.31571
-36.887348 11.642834 -8.34816
-36.834778 11.632017 -8.476082
-37.226692 11.684513 -8.758966
-37.127544 11.674129 -8.735747
-36.882084 11.659563 -8.554104
-36.930828 11.673409 -8.5916
-36.982891 11.688984 -8.477596
-36.98008 11.681628 -8.612369
-36.93602 11.657111 -8.38681
-37.030701 11.712636 -8.544441
-36.940418 11.683215 -8.151301
-37.127544 11.745662 -8.635227
-37.028755 11.660428 -8.702361
-37.037624 11.713213 -8.233361
-36.850788 11.719558 -7.640983
-37.04678 11.763977 -7.758089
-37.333992 11.82628 -8.233867
-35.845222 12.755482 -6.408417
-36.251343 12.415414 -6.621428
-36.259346 12.050684 -6.790453
-36.064507 11.852096 -6.841506
-36.263023 11.870844 -6.882464
-36.457935 12.06799 -6.82694
-35.836281 13.130306 -6.269463
-36.233818 13.161169 -6.331982
-35.637043 13.11848 -6.249056
-36.46183 11.885986 -6.912462
-36.657101 12.080394 -6.849294
-36.660995 11.898101 -6.934022
-36.958664 11.927378 -6.998921
-36.856125 12.093661 -6.873883
-36.648666 12.44945 -6.693538
-36.859367 11.918147 -6.978514
-37.058319 11.932137 -7.005844
-36.957943 12.0054 -6.917798
-37.055 11.89464 -7.207317
-37.156097 11.956654 -7.071103
-37.055508 12.103036 -6.887079
-37.057957 12.006986 -6.915202
-37.157398 12.014629 -6.930345
-37.046131 12.48161 -6.75959
-37.424923 13.271352 -6.57088
-36.242546 12.788651 -6.477787
-36.631432 13.19232 -6.394933
-37.027672 13.236595 -6.497256
-36.63958 12.825572 -6.557684
-35.63221 13.30957 -6.190287
-35.831089 13.324713 -6.220356
-35.630985 13.46446 -6.024291
-35.731579 13.317069 -6.205358
-35.828781 13.489699 -6.084286
-35.829216 13.414272 -6.173557
-35.92786 13.50066 -6.109813
-35.928726 13.420907 -6.185744
-35.631348 13.602911 -5.809477
-35.628391 13.775108 -5.694607
-35.828999 13.630024 -5.875313
-35.827412 13.788088 -5.71898
-35.829071 13.700691 -5.772485
-35.926994 13.794289 -5.729435
-35.927933 13.713527 -5.802699
-36.030327 13.334808 -6.23586
-36.026722 13.513783 -6.141325
-36.224808 13.536571 -6.194613
-36.422169 13.708479 -6.063951
-36.026867 13.654541 -5.933217
-36.026291 13.802798 -5.747463
-36.224949 13.820105 -5.784743
-36.206635 14.573647 -5.517578
-36.216728 14.187862 -5.624156
-36.322876 13.914135 -5.743353
-36.422962 13.558924 -6.246171
-36.720921 13.584595 -6.300181
-36.323956 13.832074 -5.812866
-36.914967 13.861928 -6.170312
-36.618237 13.752177 -6.179398
-36.621479 13.57724 -6.285903
-36.71825 13.682808 -6.278837
-37.019093 13.608391 -6.349216
-36.815887 13.779434 -6.245667
-36.817474 13.692615 -6.30083
-36.91518 13.787944 -6.263333
-36.820141 13.594546 -6.322391
-36.61982 13.879089 -5.930477
-36.816536 13.915577 -6.023642
-37.014404 13.797462 -6.284606
-37.013107 13.953218 -6.121061
-37.012962 13.883705 -6.227928
-37.111897 13.895819 -6.256123
-36.420223 14.013934 -5.719268
-36.614559 14.215552 -5.677589
-36.813148 14.234301 -5.718186
-36.618958 14.029799 -5.751645
-36.519516 14.022011 -5.735925
-36.422314 13.920913 -5.7559
-36.423035 13.843179 -5.838249
-36.521465 13.931729 -5.780849
-36.915688 14.067439 -5.841494
-36.604897 14.598597 -5.562502
-36.817112 14.051864 -5.80241
-37.014259 14.083591 -5.88238
-36.914604 14.150221 -5.774143
-37.210613 14.123685 -5.986506
-37.011806 14.251174 -5.753736
-37.013828 14.159451 -5.794334
-37.111176 14.258818 -5.769168
-37.112617 14.173296 -5.828442
-37.002506 14.629315 -5.624733
-37.206142 14.453513 -5.713932
-36.195961 14.965633 -5.429965
-36.18457 15.36512 -5.363769
-36.160988 16.171879 -5.255244
-36.594296 14.989141 -5.470418
-36.583191 15.385599 -5.395641
-36.992268 15.016831 -5.52313
-36.981091 15.414298 -5.45131
-36.957798 16.217165 -5.331175
-36.13633 16.989023 -5.177222
-36.111233 17.811502 -5.115352
-36.933281 17.033587 -5.25135
-36.908333 17.854624 -5.185082
-36.085564 18.639174 -5.068409
-36.059532 19.470739 -5.033652
-36.882442 18.684458 -5.144701
-36.856411 19.51487 -5.106194
-36.803844 21.183193 -5.05168
-36.417843 20.750393 -5.04793
-36.006386 21.143965 -4.993703
-36.816174 20.774332 -5.089609
-36.431686 20.32711 -5.043026
-36.830021 20.350328 -5.083047
-37.215012 20.792936 -5.115424
-36.033211 20.304611 -5.005385
-35.979996 21.978992 -4.968826
-36.750122 22.862764 -5.030263
-35.925915 23.662169 -4.958082
-36.722649 23.708752 -5.037835
-35.89851 24.507435 -4.963995
-36.69503 24.556324 -5.050237
-36.638859 26.260269 -5.101507
-36.581963 27.971281 -5.173328
-36.525215 29.681282 -5.242337
-36.468967 31.386093 -5.295986
-35.672737 31.33403 -5.199936
-35.645985 32.173237 -5.187678
-35.620674 32.996727 -5.128765
-36.44207 32.226166 -5.285891
-36.018501 33.02586 -5.185586
-36.814228 33.08268 -5.296419
-35.602646 33.748108 -4.85547
-35.611012 33.37833 -5.009784
-35.999466 33.786324 -4.939982
-35.586998 34.474392 -4.508191
-36.380634 34.552414 -4.681326
-36.007828 33.418278 -5.098983
-36.404934 33.453899 -5.175419
-36.396355 33.825409 -5.026514
-36.416401 33.053551 -5.238587
-36.80204 33.489521 -5.251711
-36.792885 33.866512 -5.119318
-37.578514 34.309406 -5.123789
-36.349842 36.001091 -3.974582
-35.571712 35.197651 -4.151899
-35.556713 35.917877 -3.786232
-36.320065 37.438953 -3.236686
-36.305424 38.156155 -2.861934
-36.290424 38.876381 -2.496772
-37.844166 40.508507 -2.217276
-36.195675 43.245487 -0.44591
-35.37096 44.619606 0.423657
-35.353004 45.369396 0.701423
-34.957558 45.316757 0.828119
-34.952869 45.506405 0.89107
-34.748295 45.691727 0.952508
-34.947029 45.707447 0.919986
-35.15081 45.531067 0.832373
-35.145329 45.728214 0.873259
-34.7369 45.948147 0.817014
-34.923664 46.227066 0.62953
-35.123119 46.236008 0.61792
-35.240658 45.847771 0.838647
-35.244553 45.737732 0.852492
-35.343414 45.750278 0.822278
-35.135235 45.971943 0.775623
-35.32243 46.246536 0.600902
-35.334618 45.982327 0.759759
-35.340023 45.856426 0.819826
-35.43391 45.990402 0.742886
-35.439175 45.865944 0.798915
-35.748669 45.419731 0.581
-36.14426 45.471359 0.457188
-36.161999 44.723732 0.173077
-35.442493 45.761528 0.795958
-35.739223 45.799892 0.704163
-35.53299 46.001221 0.717936
-35.53854 45.874886 0.780022
-35.541569 45.772778 0.770359
-35.637474 45.886711 0.752404
-35.632282 46.009727 0.700125
-35.521236 46.262547 0.568597
-35.640217 45.788067 0.732069
-35.731865 46.016075 0.688443
-35.736698 45.89666 0.73005
-35.835487 45.910362 0.696519
-35.831379 46.022564 0.676761
-35.919136 46.290089 0.515597
-35.838158 45.812004 0.675535
-36.530479 45.901566 0.461371
-35.934566 45.921036 0.672435
-35.93716 45.824409 0.646547
-36.033428 45.934448 0.639986
-35.930889 46.030064 0.66169
-36.030182 46.038139 0.645033
-35.719967 46.278408 0.53586
-36.2243 46.172119 0.574871
-36.134888 45.849934 0.58511
-36.129623 46.045929 0.629241
-36.119022 46.294994 0.515741
-35.270294 47.341156 -0.14442
-35.296902 46.787788 0.24598
-34.816151 48.448036 -0.955579
-35.215706 48.459431 -0.960194
-35.695236 46.812305 0.20257
-35.669926 47.351395 -0.145935
-36.094505 46.826439 0.190023
-36.069553 47.361347 -0.146079
-35.615265 48.470821 -0.965025
-36.840981 47.947742 -0.575995
-34.690609 48.988422 -1.315044
-34.89006 48.996788 -1.325283
-34.776779 49.413582 -1.317712
-34.782692 49.211964 -1.345762
-34.785862 49.109135 -1.353406
-34.881626 49.224075 -1.373813
-34.790405 48.991886 -1.317928
-35.189461 49.008614 -1.338407
-34.885014 49.118507 -1.373957
-34.984596 49.125721 -1.387442
-34.981136 49.231575 -1.389028
-34.989716 49.002556 -1.335162
-35.083965 49.133362 -1.403234
-34.97472 49.438385 -1.37713
-35.172947 49.459297 -1.424866
-35.089588 49.005875 -1.337398
-35.183475 49.14043 -1.41679
-35.080215 49.241673 -1.411742
-35.179436 49.25148 -1.433592
-35.282986 49.146488 -1.427534
-35.278805 49.259556 -1.450177
-35.371105 49.481075 -1.474766
-34.754425 50.20808 -1.173349
-35.943073 50.343216 -1.486304
-35.389202 49.014381 -1.341003
-35.986847 49.048561 -1.398763
-35.377811 49.271091 -1.477074
-35.569477 49.501553 -1.520844
-35.576256 49.290272 -1.519402
-35.775204 49.304264 -1.546659
-35.588226 49.027649 -1.365737
-35.767632 49.5229 -1.569518
-35.787319 49.039909 -1.38737
-36.014679 48.483513 -0.973101
-36.073811 49.323875 -1.582497
-36.06876 49.446175 -1.632758
-35.974228 49.317677 -1.571537
-35.150665 50.253078 -1.277691
-35.546978 50.296776 -1.378067
-36.350494 49.990456 -1.661674
-35.966007 49.543232 -1.615235
-35.534504 50.706791 -1.343022
-36.711979 51.239391 -1.584661
-34.729908 51.024361 -1.093019
-35.126579 51.064739 -1.1833
-35.138046 50.664822 -1.247766
-35.846954 53.587849 -1.104124
-35.895412 51.961494 -1.283244
-35.798351 55.216076 -0.930268
-35.749821 56.842865 -0.752446
-35.700428 58.478596 -0.601017
-35.650455 60.120525 -0.467687
-35.599617 61.770966 -0.360027
-35.548061 63.428326 -0.273135
-35.496067 65.090302 -0.199656
-35.444729 66.746078 -0.107789
-35.393169 68.403587 -0.020825
-35.34053 70.071617 0.034772
-35.287094 71.748306 0.064336
-35.232147 73.439995 0.04977
-33.626202 73.87986 0.420413
-34.871529 73.776306 0.125125
-34.972698 73.768234 0.100391
-40.213177 -63.042576 -45.306881
-39.31736 -64.251419 -46.790821
-40.600113 -62.903984 -45.688919
-40.470318 -63.228909 -46.311871
-39.748936 -63.878613 -46.638454
-40.222549 -62.56781 -44.212837
-40.231346 -62.086838 -43.137833
-40.217793 -62.804184 -44.763107
-41.006741 -61.825657 -43.853951
-40.236397 -61.568806 -42.172432
-40.239712 -61.03231 -41.261833
-41.013302 -61.322048 -42.845932
-41.017555 -60.795792 -41.90498
-40.240288 -60.468994 -40.430847
-39.456459 -60.076141 -39.15242
-39.454296 -59.769676 -38.810333
-40.23856 -59.881733 -39.67038
-41.019718 -60.247616 -41.028996
-41.019142 -59.672905 -40.23204
-39.450909 -59.450954 -38.504948
-40.22839 -58.641453 -38.34602
-39.845707 -59.67651 -39.057957
-40.234665 -59.273708 -38.972652
-41.012291 -58.465218 -38.810261
-40.210651 -57.323292 -37.252483
-40.220028 -57.987564 -37.783638
-41.005371 -57.826038 -38.204468
-40.996643 -57.169556 -37.649658
-39.397041 -56.062244 -36.04739
-39.382908 -55.350094 -35.65807
-40.199257 -56.639263 -36.779156
-40.986259 -56.495335 -37.147705
-40.185844 -55.935478 -36.365032
-40.172436 -55.230824 -35.953793
-40.974361 -55.8064 -36.689594
-40.158157 -54.518383 -35.564907
-40.128448 -53.080521 -34.826939
-39.353271 -53.913673 -34.915417
-39.337841 -53.188255 -34.564964
-40.098232 -51.638046 -34.101734
-40.067516 -50.19009 -33.392971
-41.680168 -51.428497 -34.606499
-40.036293 -48.736942 -32.700001
-40.004635 -47.279324 -32.020226
-39.972908 -45.82156 -31.340666
-39.941177 -44.364086 -30.660315
-39.131176 -43.707745 -30.163698
-39.115166 -42.977276 -29.828676
-39.909813 -42.909496 -29.971237
-38.725849 -43.376186 -29.925375
-38.718277 -43.014919 -29.746183
-39.100674 -42.261665 -29.449671
-39.880608 -41.476536 -29.217911
-39.894814 -42.189121 -29.606363
-39.852341 -40.053097 -28.437254
-39.824577 -38.635571 -27.63821
-39.797466 -37.223526 -26.82287
-39.769775 -35.807156 -26.02087
-38.959988 -35.152977 -25.517906
-38.94643 -34.446739 -25.110922
-39.741798 -34.386456 -25.231417
-39.715046 -32.978302 -24.404322
-38.918957 -33.031376 -24.305676
-38.90612 -32.333214 -23.874895
-38.912613 -32.683376 -24.08704
-38.892853 -31.629858 -23.459185
-38.886581 -31.282579 -23.238241
-39.311016 -32.660156 -24.126339
-39.70192 -32.276825 -23.983347
-39.317146 -33.005993 -24.351465
-40.498367 -32.227356 -24.071753
-38.879803 -30.929531 -23.034676
-38.867039 -30.231802 -22.602453
-38.8736 -30.582253 -22.814093
-39.284695 -31.25662 -23.286049
-39.689083 -31.578516 -23.552998
-39.278278 -30.907467 -23.07073
-39.676464 -30.881796 -23.117819
-41.281475 -31.474678 -23.744305
-39.271931 -30.558456 -22.855412
-39.636299 -28.769712 -21.877249
-39.663269 -30.180027 -22.697781
-38.825863 -28.109478 -21.392601
-38.811874 -27.398479 -20.99939
-39.608395 -27.350311 -21.084406
-38.797813 -26.688202 -20.604734
-38.783966 -25.980089 -20.203445
-39.594765 -26.643784 -20.67778
-39.580921 -25.935236 -20.277935
-38.75563 -24.555784 -19.42452
-39.55323 -24.51771 -19.479107
-39.132473 -23.462173 -18.886656
-39.524242 -23.086771 -18.720228
-39.530373 -23.434052 -18.940811
-39.922504 -23.062975 -18.761475
-39.139828 -23.819836 -19.076521
-38.741062 -23.840315 -19.045298
-39.538448 -23.799789 -19.106806
-39.494316 -21.647902 -17.984495
-39.4636 -20.199224 -17.27804
-39.431004 -18.732807 -16.624441
-39.395962 -17.241297 -16.044897
-39.339355 -14.963507 -15.296186
-39.277843 -12.636682 -14.69292
-39.235012 -11.067437 -14.344127
-39.190952 -9.484492 -14.035931
-39.145451 -7.888279 -13.767684
-39.122234 -7.085124 -13.648343
-39.099014 -6.281971 -13.529074
-38.254612 -4.710707 -13.244891
-39.051205 -4.661817 -13.331134
-38.230743 -3.90063 -13.145957
-38.205364 -3.075988 -13.090649
-39.02647 -3.843664 -13.256284
-39.001812 -3.026521 -13.178766
-38.95364 -1.402906 -12.991282
-38.906986 0.205998 -12.760172
-38.065903 1.744091 -12.377415
-38.862495 1.791828 -12.461206
-38.026962 3.274685 -11.914329
-38.841656 2.570609 -12.268963
-38.82262 3.332517 -12.027469
-38.011459 3.999961 -11.563589
-37.997543 4.709661 -11.167059
-38.806179 4.066157 -11.702111
-38.791973 4.779463 -11.315677
-37.984276 5.41143 -10.747094
-37.580894 5.723952 -10.452456
-37.379204 5.879852 -10.303838
-37.574333 6.074115 -10.239805
-37.673771 6.081326 -10.254154
-37.375385 6.060414 -10.214278
-37.474968 6.066904 -10.226393
-38.778271 5.486424 -10.910999
-37.97187 6.10642 -10.306867
-38.071167 6.115073 -10.324821
-38.765293 6.186029 -10.484616
-37.3619 6.338613 -10.413949
-37.749992 6.607725 -10.557446
-37.562145 6.339478 -10.402051
-37.462349 6.335584 -10.397508
-37.469704 6.191221 -10.2817
-37.569717 6.192375 -10.278023
-37.669807 6.193096 -10.272831
-37.763405 6.33068 -10.360805
-37.248974 6.609455 -10.599486
-37.340988 6.762616 -10.733538
-37.335075 6.892989 -10.807811
-37.348488 6.615945 -10.610951
-37.434803 6.898181 -10.815815
-37.429825 7.019613 -10.863118
-37.549816 6.605417 -10.565234
-37.63512 6.897892 -10.800022
-37.326782 7.118547 -10.851293
-37.525299 7.136719 -10.890737
-37.529194 7.027112 -10.878333
-37.624737 7.144795 -10.907466
-37.534672 6.901065 -10.816968
-37.628704 7.033603 -10.890231
-37.76939 6.199008 -10.283143
-37.662811 6.334863 -10.381139
-37.773281 6.088681 -10.268793
-37.869118 6.203335 -10.288767
-37.863419 6.331978 -10.357415
-37.872578 6.096902 -10.286027
-37.968483 6.211267 -10.304704
-37.962715 6.340487 -10.37537
-37.949806 6.613205 -10.558888
-37.837677 6.875827 -10.720054
-37.729008 7.032016 -10.878333
-37.724247 7.151574 -10.920301
-37.736725 6.883759 -10.750844
-38.136787 6.889816 -10.739379
-37.827942 7.044852 -10.909268
-37.823254 7.163255 -10.947198
-37.927742 7.048169 -10.911504
-37.937187 6.882317 -10.732312
-37.922695 7.170322 -10.961115
-38.022205 7.177389 -10.974815
-37.719055 7.346125 -10.871555
-37.509148 7.869062 -10.560763
-37.906036 7.907568 -10.646141
-37.917431 7.366027 -10.916335
-38.115803 7.385641 -10.959456
-38.018959 7.281226 -10.970345
-37.913681 7.546012 -10.824612
-38.068428 6.213719 -10.304992
-38.167648 6.223093 -10.325398
-38.062801 6.341641 -10.371909
-38.162529 6.345967 -10.377245
-38.170029 6.127909 -10.355829
-38.262184 6.351015 -10.384961
-38.149261 6.622002 -10.570859
-38.548748 6.633828 -10.576267
-38.26709 6.230593 -10.340469
-38.26918 6.138437 -10.379986
-38.361622 6.358659 -10.400176
-38.36631 6.240111 -10.361382
-38.368473 6.147234 -10.398806
-38.34922 6.625896 -10.567975
-38.748058 6.643923 -10.592132
-38.036987 6.885634 -10.734692
-38.027325 7.054803 -10.923835
-38.128059 7.048746 -10.898596
-38.121716 7.183301 -10.985055
-38.133759 6.956301 -10.780625
-38.186974 6.889384 -10.734619
-38.336311 6.897604 -10.748104
-38.1838 6.95659 -10.777524
-38.178032 7.050044 -10.898668
-38.236588 6.893566 -10.743344
-38.233486 6.960628 -10.78625
-38.227428 7.056966 -10.915831
-38.221081 7.192243 -11.004525
-38.328884 7.043986 -10.869752
-38.321026 7.194118 -11.002361
-38.42104 7.195848 -11.000342
-38.465748 6.247322 -10.375226
-38.46777 6.156176 -10.417626
-38.564972 6.25684 -10.39621
-38.461136 6.365293 -10.412507
-38.560501 6.373658 -10.430029
-38.566776 6.168146 -10.445893
-38.664337 6.265638 -10.415103
-38.666214 6.175068 -10.459306
-38.763634 6.274003 -10.432626
-38.660011 6.379859 -10.441422
-38.862713 6.284819 -10.457503
-38.760315 6.37885 -10.431183
-38.85997 6.383464 -10.437096
-38.954147 6.515136 -10.507979
-38.436039 6.902796 -10.756396
-38.535912 6.905536 -10.757261
-38.429913 7.035189 -10.836726
-38.529709 7.038795 -10.839611
-38.620567 7.203925 -11.009501
-38.721088 7.200752 -10.993059
-38.52084 7.199166 -11.00265
-38.735294 6.91592 -10.773126
-38.629223 7.046005 -10.853745
-38.118111 7.291321 -10.992843
-38.214882 7.396601 -10.984983
-38.217476 7.299253 -11.00878
-38.11198 7.566058 -10.869247
-38.314392 7.403235 -10.997386
-38.317131 7.304301 -11.016423
-38.416641 7.311224 -11.030051
-38.309994 7.58971 -10.924988
-38.698952 7.993378 -10.842134
-38.512909 7.421695 -11.037767
-38.516083 7.318435 -11.044041
-38.612347 7.429483 -11.05327
-38.508221 7.610766 -10.972725
-38.706665 7.629803 -11.014764
-38.615448 7.326655 -11.061419
-38.715103 7.331991 -11.069495
-38.711716 7.437271 -11.068991
-38.905254 7.647398 -11.052333
-38.302494 7.949824 -10.742552
-39.095337 8.035923 -10.93941
-37.890678 8.631402 -10.291291
-37.875389 9.355092 -9.936369
-38.684025 8.71202 -10.471853
-39.484222 8.439158 -10.855547
-38.668377 9.439316 -10.127819
-37.859741 10.081666 -9.589739
-37.445763 10.784732 -9.202656
-37.842506 10.823959 -9.289692
-37.851665 10.447116 -9.423022
-38.652298 10.170072 -9.793159
-38.248196 10.489516 -9.519361
-38.239109 10.865783 -9.38466
-38.635929 10.904145 -9.469028
-37.436676 11.160133 -9.065215
-37.230877 11.499913 -8.836773
-37.429539 11.516931 -8.872467
-37.634834 11.182631 -9.117639
-37.63065 11.36651 -9.037525
-37.825489 11.564812 -8.98539
-37.827579 11.401844 -9.12759
-38.023144 11.591925 -9.051371
-37.730522 11.298439 -9.14093
-37.829239 11.313293 -9.177489
-37.733047 11.202534 -9.169197
-37.83205 11.214215 -9.196383
-37.425282 11.70254 -8.797762
-37.226334 11.759651 -8.668757
-37.134754 11.74422 -8.317874
-37.326134 11.834644 -8.571194
-37.324619 11.777966 -8.716134
-37.424561 11.851951 -8.615396
-37.231743 11.776669 -8.407001
-37.325844 11.69432 -8.780744
-37.424057 11.785899 -8.732503
-37.528111 11.889303 -8.406063
-37.241478 11.820223 -7.910816
-37.248039 11.897236 -7.513205
-37.638657 11.998477 -7.784553
-37.435524 11.883679 -8.084311
-37.430618 11.861902 -8.332151
-37.44331 11.947856 -7.648915
-37.833637 12.052559 -7.93043
-37.623585 11.72302 -8.843984
-37.620701 11.894207 -8.725941
-37.719273 11.910503 -8.767404
-37.522633 11.801763 -8.772162
-37.522415 11.875315 -8.677844
-37.629498 11.948145 -8.260547
-37.622936 11.942953 -8.558142
-37.92017 12.047223 -8.53276
-37.720284 11.971797 -8.636309
-37.817917 11.996602 -8.702649
-37.72699 11.975691 -8.33518
-38.016438 12.086884 -8.643159
-37.817917 11.925358 -8.804035
-37.91613 12.016072 -8.753198
-37.823689 12.010592 -8.431302
-39.409878 11.748979 -9.41545
-37.931274 11.223878 -9.217654
-38.229229 11.249694 -9.27253
-38.224758 11.437322 -9.203304
-38.616817 11.665765 -9.226668
-37.928173 11.325841 -9.20756
-37.926445 11.41468 -9.158308
-38.030281 11.235704 -9.245705
-38.027325 11.336225 -9.231283
-38.025738 11.42391 -9.178427
-38.126835 11.342714 -9.243254
-38.125248 11.429678 -9.188306
-38.221226 11.615 -9.10502
-37.916782 11.93877 -8.836917
-38.21286 11.983912 -8.948614
-38.014416 12.036119 -8.804973
-38.015282 11.955933 -8.879894
-38.112343 12.058184 -8.863453
-38.112774 12.12539 -8.75017
-38.02718 12.12063 -8.117482
-38.212284 12.167068 -8.710076
-38.114071 11.969922 -8.914362
-38.210987 12.073759 -8.902392
-38.259659 12.159137 -8.839585
-38.309631 12.08919 -8.940899
-38.21077 12.147022 -8.807064
-38.308697 12.169088 -8.865472
-38.119335 12.130437 -8.452357
-38.221947 12.177164 -8.270714
-38.216972 12.155676 -8.51978
-38.26067 12.184231 -8.757236
-38.410728 12.008284 -9.006735
-38.608452 12.034965 -9.070911
-38.407413 12.184375 -8.902897
-38.309273 12.199229 -8.79841
-38.409286 12.235861 -8.743247
-38.265862 12.16779 -8.552085
-38.31295 12.197787 -8.637751
-38.31879 12.210191 -8.361283
-38.604847 12.284463 -8.872899
-38.414768 12.252302 -8.479326
-38.506203 12.198076 -8.936572
-38.604847 12.213219 -8.974141
-38.507214 12.259225 -8.804829
-38.513126 12.270473 -8.525909
-38.61076 12.296433 -8.595495
-38.702847 12.307105 -8.932606
-37.15242 11.922186 -7.281446
-37.251572 12.003237 -7.201837
-37.255898 12.031071 -6.97224
-37.155376 12.106641 -6.890613
-37.254601 12.114861 -6.908063
-37.450809 12.085297 -7.117974
-37.353462 12.128995 -6.94246
-37.349209 12.029196 -7.271783
-37.44735 12.049242 -7.324062
-37.353752 12.054723 -7.034904
-37.451965 12.14558 -6.984138
-37.844021 12.232112 -7.211716
-37.648247 12.186395 -7.091077
-37.24984 12.305375 -6.847203
-37.443382 12.516511 -6.833935
-37.448502 12.322248 -6.882897
-37.351589 12.218699 -6.895516
-37.450954 12.22692 -6.91275
-37.549671 12.242063 -6.950464
-37.644062 12.086018 -7.418526
-37.840057 12.130149 -7.534838
-37.942234 12.251581 -7.262481
-37.55032 12.164041 -7.031803
-37.648247 12.258215 -6.991061
-37.547291 12.336238 -6.917005
-37.646152 12.349794 -6.950391
-37.746746 12.27379 -7.029856
-37.744801 12.365226 -6.988177
-37.641754 12.536557 -6.878427
-37.746387 12.207306 -7.145375
-37.845322 12.289944 -7.070382
-37.84388 12.375897 -7.012694
-38.041531 12.331911 -7.180637
-37.943027 12.386281 -7.036562
-37.839767 12.560065 -6.93359
-37.822605 13.302071 -6.632678
-37.831474 12.9284 -6.775454
-38.424789 12.293838 -7.976869
-38.034607 12.188269 -7.692974
-38.039799 12.278838 -7.3356
-38.235722 12.32268 -7.451407
-37.943462 12.311288 -7.126627
-38.041531 12.402722 -7.077953
-38.038139 12.579391 -6.976567
-38.631313 12.516655 -7.372303
-38.435608 12.469784 -7.247843
-38.236874 12.595543 -7.009809
-38.239109 12.431133 -7.147611
-38.33754 12.519684 -7.090139
-38.431858 12.364937 -7.561807
-38.619488 12.350947 -8.131615
-39.016594 12.529058 -8.005352
-38.337395 12.450459 -7.197438
-38.827019 12.563093 -7.495106
-38.434669 12.621647 -7.072761
-38.435898 12.537711 -7.136362
-38.534397 12.554873 -7.179843
-38.533386 12.493292 -7.309857
-39.022652 12.610253 -7.620576
-38.627274 12.414693 -7.695354
-38.731041 12.591649 -7.274595
