41.0325 -53.9753 -637.145
44.3807 -53.7927 -650.062
52.9894 -36.0303 -642.009
50.1732 -39.5029 -630.708
41.3208 -42.2018 -647.536
41.142 -41.9711 -646.845
41.4434 -41.3936 -646.497
41.6701 -41.6205 -647.198
41.4097 -53.4101 -637.725
41.6724 -52.884 -637.363
41.7187 -52.7591 -636.683
41.186 -41.1772 -645.802
41.307 -40.3408 -644.793
41.1834 -37.3356 -638.709
41.2393 -37.4057 -639.55
41.9879 -41.0395 -646.864
41.526 -40.5973 -645.492
41.7545 -40.8184 -646.163
42.3037 -40.4617 -646.514
41.3115 -53.5916 -638.597
41.5851 -53.0884 -638.831
41.6415 -52.9555 -638.102
41.9458 -52.4144 -637.741
42.0628 -52.2444 -636.898
42.6195 -51.3317 -636.23
44.7631 -53.3878 -649.486
44.605 -53.9307 -648.646
45.0239 -53.2982 -648.708
41.1321 -40.1042 -644.092
41.8501 -39.9803 -645.144
42.0742 -40.2268 -645.809
41.4888 -39.4971 -643.798
41.6479 -39.7144 -644.462
42.1693 -39.3621 -644.821
41.3021 -39.3392 -643.065
41.1421 -39.1225 -642.302
41.2106 -38.2597 -641.238
41.3093 -36.2898 -638.367
41.5682 -36.6279 -639.301
41.3088 -37.4375 -640.305
41.4899 -37.5787 -641.012
41.6307 -36.7905 -640.1
42.4017 -39.6336 -645.493
42.6233 -39.8825 -646.161
41.4286 -53.6321 -640.316
41.3819 -53.5072 -639.456
41.7262 -52.9603 -639.738
42.1284 -52.2445 -639.631
42.0212 -52.3496 -638.661
42.5271 -51.7468 -638.487
42.3829 -51.8742 -637.654
42.4227 -51.7756 -636.729
42.6682 -51.4326 -636.993
43.0086 -50.7856 -636.933
42.9182 -50.6666 -636.025
43.2328 -49.9876 -635.809
43.5827 -49.4323 -636.238
43.4943 -49.3383 -635.454
43.7764 -48.7065 -635.147
45.2772 -52.8088 -649.035
45.644 -52.418 -648.671
44.9567 -53.4839 -647.938
45.3911 -52.8928 -648.343
45.3541 -52.974 -647.707
44.5842 -53.8639 -647.205
44.9757 -53.3184 -646.994
41.9752 -39.1052 -644.171
41.6195 -38.7048 -642.771
41.7972 -38.903 -643.492
42.2736 -38.4954 -643.836
42.7066 -39.0184 -645.147
42.9381 -39.2904 -645.794
42.4701 -38.7403 -644.491
43.0119 -38.3987 -644.816
41.4371 -38.4667 -642.01
41.6861 -37.8259 -641.708
41.901 -36.0913 -639.765
42.0502 -36.2961 -640.472
41.7584 -36.9508 -640.781
41.9495 -37.1808 -641.437
42.175 -37.3841 -642.081
42.173 -36.5955 -641.109
43.2811 -38.6955 -645.477
41.9347 -53.2079 -640.844
42.2116 -52.5144 -640.474
42.4862 -51.7956 -639.227
42.8341 -52.1619 -640.966
42.5699 -51.8799 -640.093
42.9305 -51.394 -639.748
42.8686 -51.3496 -638.853
42.8376 -51.2827 -637.855
43.1755 -50.6513 -637.767
43.396 -50.1276 -637.4
43.325 -50.073 -636.632
43.6641 -49.5151 -637.066
44.0085 -48.8518 -636.759
43.9028 -48.7674 -635.94
44.2379 -48.164 -635.639
44.1285 -48.0525 -634.886
44.4678 -53.826 -646.492
46.0273 -51.8203 -648.714
45.744 -52.4235 -647.9
46.1734 -51.8287 -647.835
45.4342 -52.7962 -647.157
45.7822 -52.2908 -646.917
46.5003 -51.2769 -648.422
44.8694 -53.2786 -646.094
45.317 -52.8298 -646.456
42.0925 -38.265 -643.13
41.8999 -38.052 -642.426
42.7726 -38.1244 -644.177
42.4223 -37.5889 -642.81
42.5889 -37.8702 -643.522
43.0926 -37.5132 -643.871
43.5957 -38.063 -645.111
43.8695 -38.3655 -645.75
43.3129 -37.7715 -644.481
43.8975 -37.4237 -644.769
42.5428 -36.5487 -641.679
42.799 -36.8228 -642.443
42.5651 -53.6446 -642.259
42.2644 -53.4377 -641.617
42.8964 -53.8726 -642.948
43.1789 -53.3264 -642.613
43.4863 -53.6186 -643.264
43.761 -53.8974 -643.869
44.0734 -53.3155 -643.576
42.8892 -53.0599 -641.963
42.5527 -52.8039 -641.322
43.2131 -52.4518 -641.702
43.4904 -51.8715 -641.418
43.1698 -51.5684 -640.656
43.4102 -50.9783 -640.343
43.2239 -50.8392 -639.413
43.1714 -50.7942 -638.517
43.459 -50.2828 -638.889
43.454 -50.1789 -638.16
43.68 -49.6691 -637.802
44.0858 -49.0067 -637.741
44.5909 -48.3747 -637.865
44.4263 -48.3647 -637.118
44.3745 -48.225 -636.404
44.7097 -47.6764 -636.104
44.5839 -47.5509 -635.324
44.4713 -47.4147 -634.566
44.7993 -46.8324 -634.248
44.4066 -53.7295 -645.71
44.3008 -53.7291 -645.003
46.5145 -51.3962 -647.728
46.2051 -51.7443 -647.097
46.5245 -51.3094 -646.983
45.6127 -52.3966 -646.049
46.0333 -51.8229 -646.139
46.864 -50.868 -647.877
45.2747 -52.7741 -645.683
45.3067 -52.6565 -644.985
44.8275 -53.1892 -645.109
47.157 -50.3887 -647.675
42.9431 -37.2144 -643.212
43.2569 -36.6025 -642.912
43.6212 -37.1451 -644.166
43.4105 -36.9013 -643.557
43.9117 -36.5468 -643.865
44.1833 -37.7461 -645.39
44.4899 -37.1302 -645.066
44.2058 -36.7789 -644.456
44.7927 -36.5084 -644.757
43.5046 -52.7351 -642.315
43.7748 -53.0184 -642.955
44.0787 -52.432 -642.657
44.3435 -53.5073 -644.301
44.3704 -52.716 -643.276
44.7789 -53.1145 -644.368
44.6466 -52.9853 -643.87
44.939 -52.4207 -643.597
43.8089 -52.1637 -642.052
44.0428 -51.5795 -641.793
43.7277 -51.2666 -641.151
43.9286 -50.5783 -640.823
43.6649 -50.2114 -639.776
44.055 -49.5596 -639.691
43.8555 -49.5906 -638.742
44.3016 -48.927 -638.583
44.7702 -48.4454 -638.803
45.2793 -47.8995 -638.628
45.0661 -47.8681 -637.921
44.8599 -47.7912 -637
45.2404 -47.1861 -636.6
45.079 -47.0712 -635.845
44.9567 -46.9272 -635.056
45.2997 -46.3502 -634.732
45.6402 -45.7617 -634.337
46.8933 -50.747 -646.929
46.4921 -51.1824 -645.964
46.8623 -50.6198 -646.066
46.1025 -51.5749 -645.139
45.669 -52.1953 -645.197
46.4116 -51.1807 -645.142
47.1977 -50.2056 -647.151
45.1305 -52.69 -644.307
45.5354 -52.2681 -644.466
47.4069 -49.7326 -647.843
47.4299 -49.6348 -647.006
43.6804 -36.2825 -643.183
44.4859 -36.1785 -644.166
44.3422 -51.8578 -642.388
44.6342 -52.1264 -642.997
44.8726 -51.5129 -642.748
45.1812 -51.8002 -643.34
45.4458 -52.0662 -643.905
45.7234 -51.4031 -643.665
44.2654 -50.9198 -641.541
44.5707 -51.2321 -642.149
44.8278 -50.5476 -641.887
44.1948 -49.8643 -640.468
44.5155 -50.2163 -641.247
44.7827 -49.5223 -640.906
44.3418 -49.066 -639.319
44.498 -49.2155 -640.124
44.8661 -48.6235 -639.732
45.3276 -48.075 -639.35
45.9469 -47.7057 -639.69
45.8108 -47.528 -638.907
45.6158 -47.4097 -638.122
45.429 -47.2963 -637.373
45.8036 -46.759 -637.028
45.5944 -46.6146 -636.261
45.4411 -46.4789 -635.524
45.784 -45.9121 -635.154
46.1383 -45.3366 -634.779
45.9895 -45.1929 -634.031
47.1215 -50.2099 -646.451
46.7248 -50.694 -645.211
47.0922 -50.1172 -645.667
47.0131 -50.1382 -644.969
47.3874 -49.5871 -646.148
45.8962 -51.6701 -644.323
46.3609 -51.1366 -644.551
46.6664 -50.5913 -644.404
47.7278 -48.9279 -646.94
47.9748 -48.2759 -646.926
47.6952 -48.8953 -646.02
45.1117 -50.852 -642.492
45.4216 -51.128 -643.095
45.666 -50.4743 -642.839
45.9847 -50.7444 -643.426
46.2332 -51.0207 -643.965
46.4867 -50.4337 -643.804
45.1018 -49.8622 -641.597
45.3882 -50.1828 -642.231
45.6834 -49.4963 -641.941
45.0965 -48.8426 -640.533
45.393 -49.1704 -641.269
45.7456 -48.494 -640.881
45.4934 -48.2311 -640.129
46.1584 -47.9067 -640.442
46.8066 -47.6084 -640.757
46.6051 -47.388 -639.981
46.4318 -47.1976 -639.258
46.23 -47.0311 -638.497
46.0157 -46.9034 -637.782
46.854 -46.7345 -638.884
46.1427 -46.2221 -636.684
45.938 -46.067 -635.948
46.6124 -46.5563 -638.144
46.3857 -46.3969 -637.445
46.7062 -45.8646 -637.099
46.4548 -45.6628 -636.326
46.2817 -45.4957 -635.573
46.664 -44.9146 -635.191
46.6415 -43.9848 -633.383
46.4901 -44.7677 -634.438
46.3146 -44.6109 -633.732
47.4245 -42.8123 -632.624
46.9956 -49.9404 -644.283
47.3406 -49.5508 -645.177
47.3788 -49.3663 -644.426
47.6809 -48.8594 -645.1
46.7496 -49.7444 -643.532
48.1897 -47.6923 -646.928
47.9597 -48.2585 -646.014
48.2108 -47.6701 -646.017
47.9671 -48.2409 -645.091
46.2318 -50.1039 -643.194
45.9644 -49.8035 -642.59
45.9938 -48.8151 -641.584
46.5169 -49.3957 -642.879
46.2609 -49.1087 -642.253
46.5779 -48.4786 -641.906
46.3774 -48.1868 -641.2
46.9759 -47.8688 -641.529
47.2356 -47.1143 -640.314
47.0671 -46.936 -639.62
47.5098 -47.5103 -641.792
47.3927 -47.2985 -641.074
47.7737 -46.8156 -640.643
47.2112 -46.25 -638.522
46.9688 -46.0645 -637.841
47.6338 -46.6587 -639.919
47.4533 -46.4679 -639.248
47.7779 -45.9419 -638.886
47.0246 -45.2726 -636.733
46.8224 -45.0765 -635.981
47.5313 -45.7207 -638.18
47.2814 -45.5087 -637.504
47.6121 -44.895 -637.133
47.0356 -44.3336 -634.835
46.8414 -44.1681 -634.146
47.383 -44.6569 -636.34
47.2125 -44.4886 -635.59
47.6109 -43.9261 -635.224
47.0213 -43.3776 -633.005
47.4077 -43.7462 -634.487
47.2162 -43.5614 -633.78
47.6232 -43.004 -633.393
48.0083 -42.458 -633.009
47.8195 -42.2739 -632.281
48.3894 -41.9104 -632.613
48.2136 -41.7469 -631.879
47.2147 -49.3346 -643.835
47.6289 -48.8277 -644.292
47.4786 -48.6926 -643.6
47.9291 -48.205 -644.233
47.0264 -49.0579 -643.216
46.8322 -48.7372 -642.582
48.7203 -46.4062 -646.043
49.008 -45.826 -645.766
48.4442 -47.1188 -645.882
48.2475 -47.6493 -645.086
48.536 -47.0094 -645.075
48.2494 -47.6035 -644.208
47.1432 -48.1222 -642.227
47.6347 -47.7613 -642.542
47.9548 -47.1761 -642.112
47.876 -46.9824 -641.396
48.1324 -46.3122 -640.257
47.9911 -46.1561 -639.599
48.2767 -46.6139 -641.741
48.2194 -46.4542 -640.985
48.5906 -45.925 -640.6
48.0946 -45.3835 -638.536
47.8644 -45.153 -637.879
48.4926 -45.7853 -639.912
48.3181 -45.6081 -639.25
48.6255 -45.0326 -638.897
47.9874 -44.2899 -636.731
47.7991 -44.0921 -635.992
48.4093 -44.7863 -638.188
48.207 -44.5417 -637.504
48.5789 -43.9673 -637.079
48.0057 -43.3848 -634.853
47.8172 -43.2022 -634.151
48.3951 -43.7425 -636.32
48.2142 -43.5638 -635.607
48.5863 -43.0521 -635.216
48.3879 -42.8566 -634.473
48.2073 -42.666 -633.769
48.5826 -42.1181 -633.38
48.9676 -41.5841 -632.967
48.7946 -41.4059 -632.209
49.3491 -41.0716 -632.526
49.1882 -40.9019 -631.739
47.8336 -47.9859 -643.391
47.3214 -48.4073 -642.932
48.2344 -47.445 -643.526
48.8423 -46.3655 -645.053
49.2095 -45.7263 -644.934
49.5309 -45.0996 -644.983
49.7279 -44.5518 -645.279
50.0439 -44.1379 -644.863
48.5676 -46.985 -644.189
48.901 -46.37 -644.167
48.4946 -46.9135 -643.375
48.071 -47.3776 -642.866
48.3634 -46.794 -642.557
48.743 -46.1987 -642.429
48.6943 -46.0149 -641.486
48.9636 -45.4079 -640.246
48.8401 -45.2454 -639.612
49.1305 -45.5201 -641.684
49.0186 -45.5242 -640.955
49.3138 -45.0599 -640.598
48.9238 -44.4411 -638.526
48.7584 -44.206 -637.834
49.2995 -44.8378 -639.952
49.1318 -44.6573 -639.259
49.4098 -44.0688 -638.919
48.9307 -43.4356 -636.658
48.7785 -43.2453 -635.958
49.2535 -43.8365 -638.162
49.0977 -43.63 -637.42
49.4214 -43.0938 -637.056
48.9396 -42.5184 -634.83
48.768 -42.325 -634.132
49.2812 -42.9153 -636.292
49.1262 -42.7233 -635.573
49.4612 -42.1769 -635.187
49.2942 -41.9705 -634.444
49.1396 -41.7834 -633.738
49.5063 -41.2562 -633.324
49.8653 -40.7227 -632.923
49.6757 -40.6313 -632.22
49.6367 -40.3665 -631.475
50.1358 -39.9213 -631.664
49.9298 -39.8562 -630.951
50.3731 -43.3615 -644.929
49.2129 -45.8861 -644.04
49.5822 -45.256 -644.131
49.8408 -44.6833 -644.576
49.903 -44.74 -644.09
50.2108 -44.1316 -644.074
50.595 -43.4427 -644.126
48.8468 -46.3161 -643.31
49.2298 -45.7442 -643.302
49.1488 -45.6457 -642.424
49.5179 -45.1037 -642.389
49.4672 -44.9969 -641.433
49.8162 -44.4051 -641.346
49.6784 -44.4585 -640.534
49.6046 -44.2315 -639.67
49.8643 -43.6479 -639.331
49.7239 -43.4554 -638.615
49.5936 -43.2421 -637.848
49.9055 -42.6894 -637.498
49.7338 -42.6198 -636.789
49.6958 -42.3481 -636.057
49.7872 -41.623 -634.8
49.6524 -41.4384 -634.088
50.1555 -41.8739 -636.24
49.9535 -41.8054 -635.549
50.2723 -41.2397 -635.217
50.1293 -41.0598 -634.445
50.0016 -40.8922 -633.696
50.3535 -40.3454 -633.301
50.1621 -40.193 -632.407
50.5915 -39.6272 -632.169
50.46 -39.4707 -631.397
50.769 -42.8829 -644.473
51.3574 -41.5846 -644.007
50.8189 -43.0695 -643.9
49.5869 -45.1692 -643.21
49.9108 -44.703 -643.63
50.1672 -44.1952 -643.273
50.5492 -43.5203 -643.275
50.8848 -42.8995 -643.406
49.8893 -44.6039 -642.94
49.8349 -44.5301 -642.155
50.2129 -43.9342 -642.441
50.0703 -44.0056 -641.596
50.0573 -43.8738 -640.806
49.9879 -43.7919 -640.048
50.2595 -43.1917 -639.778
50.1473 -43.0183 -638.999
50.0313 -42.8413 -638.266
50.3486 -42.2569 -637.931
50.1816 -42.1348 -637.005
50.5798 -41.5155 -636.783
50.4524 -41.3689 -635.987
50.7741 -40.8066 -635.658
50.5833 -40.7388 -634.959
50.5472 -40.4744 -634.203
50.6927 -39.7978 -632.912
51.0054 -39.9813 -634.396
50.8132 -39.9476 -633.681
51.1387 -39.3964 -633.377
51.0369 -39.2293 -632.568
51.0489 -42.4975 -643.978
51.4514 -41.5889 -643.22
51.1601 -42.2506 -643.178
51.6805 -40.9626 -643.269
51.8935 -40.3878 -643.049
50.5617 -43.2948 -642.372
50.8169 -42.8956 -642.749
51.0485 -42.3603 -642.363
50.4198 -43.3614 -641.512
50.3677 -43.2576 -640.585
50.6915 -42.6683 -640.537
50.6311 -42.5134 -639.611
50.4837 -42.3811 -638.716
50.8037 -41.7916 -638.388
50.6949 -41.6554 -637.61
51.1262 -41.1934 -638.017
51.0217 -41.0485 -637.193
50.9103 -40.9286 -636.416
51.2256 -40.3749 -636.086
51.047 -40.2441 -635.172
51.4398 -39.6228 -634.996
51.2841 -39.5133 -634.191
51.568 -38.9532 -633.942
51.3944 -41.6445 -642.428
51.7139 -40.9061 -642.319
51.9616 -40.2964 -642.311
52.0963 -39.7153 -643.234
52.229 -39.5662 -642.213
50.7941 -42.7738 -641.987
50.7177 -42.7719 -641.267
51.4052 -41.539 -641.417
51.0449 -42.2218 -641.498
51.0287 -42.11 -640.533
51.0284 -41.9798 -639.819
50.9055 -41.9396 -639.137
51.2237 -41.3574 -638.849
51.5448 -40.7562 -638.527
51.4404 -40.6134 -637.679
51.3501 -40.4728 -636.873
51.6359 -39.9258 -636.539
51.5486 -39.7904 -635.794
51.6919 -39.0804 -634.694
51.9019 -39.3284 -636.196
51.8085 -39.2084 -635.448
51.995 -38.5861 -635.167
51.7315 -40.906 -641.403
52.0162 -40.3031 -641.394
52.2519 -39.7637 -641.26
52.4452 -38.8181 -642.285
52.4731 -39.0728 -641.427
52.5643 -38.2354 -642.605
51.3821 -41.5211 -640.516
51.7361 -40.9064 -640.496
52.7229 -37.8263 -642.185
51.329 -41.4641 -639.676
51.7094 -40.8109 -639.521
52.0765 -40.2209 -639.726
51.9361 -40.2552 -638.934
51.8108 -40.1608 -638.088
51.7166 -40.0476 -637.303
51.9255 -39.5313 -636.913
52.2379 -38.8408 -636.949
52.1363 -38.6669 -636.012
52.052 -40.3107 -640.486
52.3301 -39.6848 -640.484
52.5748 -39.0641 -640.471
52.6355 -38.3741 -641.875
52.6944 -38.531 -641.167
52.8206 -38.4274 -640.367
52.8354 -37.1628 -642.137
52.8476 -37.8633 -641.361
52.3133 -39.6795 -639.609
52.2078 -39.6309 -638.736
52.107 -39.4661 -637.774
52.412 -38.7946 -637.811
52.5346 -38.2384 -637.471
52.5874 -39.0156 -639.521
52.8221 -38.4249 -639.493
52.4575 -39.0016 -638.563
52.6906 -38.564 -638.908
52.6221 -38.4023 -638.207
52.7428 -37.7524 -637.968
52.8806 -37.8901 -638.859
