-114.258 102.597 -23.8809
-116.709 81.0873 -34.0448
-115.046 58.1525 -44.1296
-113.973 38.4409 -53.162
-76.6358 36.1492 -45.3373
-30.7228 33.7487 -39.3241
-8.25471 36.7766 -36.4644
16.9437 40.9978 -37.1919
49.1327 43.9109 -42.2618
71.6683 50.2994 -47.3277
75.5293 104.018 -41.8246
60.1116 126.706 -22.0762
40.5304 117.009 -9.70214
11.4082 104.947 4.7708
-24.5018 92.7058 7.84485
-52.0809 93.5021 5.65296
-81.5819 96.4915 -6.74128
-0.143401 59.481 -21.4311
0.139956 66.6683 -16.1729
-6.91019 59.1204 -20.3979
-6.62351 66.2314 -14.901
-105.391 65.2484 -36.4853
-95.3471 64.0273 -33.2119
-105.012 73.4351 -31.8198
-95.0112 71.9563 -28.1676
55.1823 65.6838 -38.5627
63.0517 66.8576 -41.8057
55.2073 73.9334 -36.5932
62.9955 75.2788 -40.3243
-65.2539 60.6994 -24.3106
-58.7756 60.1524 -22.8744
-64.9769 67.9507 -18.3445
-58.4941 67.3051 -16.8111
-7.52984 36.9719 -36.3524
-106.377 40.4842 -50.0198
-96.203 39.8978 -47.7955
-5.06953 94.1436 5.88762
-5.51963 87.1808 1.04694
1.65585 94.9111 3.81114
1.21997 87.8658 -0.874052
-103.571 98.327 -18.711
-93.7021 95.9358 -13.9345
-65.9135 38.1909 -41.4644
-59.4407 37.8753 -40.3005
55.434 98.0125 -30.1227
63.0006 99.807 -35.1697
55.5719 105.805 -27.527
63.0764 107.71 -32.897
-63.8732 89.4361 -1.29888
-57.3795 88.4196 0.548313
21.6523 68.953 -22.7322
21.4124 61.4208 -26.9212
29.8716 70.0216 -25.723
29.6636 62.3273 -29.4062
-85.6346 62.9101 -30.2412
-75.8952 61.8135 -27.298
-85.3296 70.5983 -24.8533
-75.6111 69.2768 -21.5996
-34.483 59.0405 -20.0778
-26.9755 58.9204 -19.7944
-34.1857 66.033 -14.0534
-26.6809 65.9175 -13.8693
-86.3928 39.3634 -45.779
-76.5846 38.804 -43.7024
22.8995 98.5211 -6.35754
22.546 91.172 -10.3381
30.9605 100.141 -11.0267
30.6506 92.6791 -14.6876
-84.1212 93.7057 -9.58743
-74.4752 91.554 -5.38747
-35.1585 37.145 -37.4152
-27.6328 37.0215 -36.8713
-33.0253 86.5466 3.28193
-25.5328 86.4531 3.20957
0.461718 73.7742 -10.947
0.821739 80.8297 -5.82184
-6.29653 73.2568 -9.44037
-5.92872 80.2288 -4.09499
-104.591 81.65 -27.2341
-94.6329 79.8903 -23.2001
-104.115 89.9336 -22.8276
-94.2008 87.8696 -18.4161
55.2558 82.0715 -34.5781
62.9654 83.5807 -38.7849
55.3301 90.099 -32.4467
62.9654 91.7596 -37.0987
-64.6598 75.1322 -12.44
-58.1724 74.376 -10.806
-64.2949 82.281 -6.71453
-57.8035 81.4013 -4.97604
-0.59262 44.7461 -31.7805
-0.387884 52.1832 -26.6553
-7.36361 44.5201 -31.1963
-7.15689 51.8932 -25.8546
-106.063 48.8093 -45.6749
-95.9335 48.0342 -43.122
-105.737 57.0521 -41.1346
-95.6512 56.0656 -38.23
55.2006 48.8467 -42.6358
63.2304 49.6712 -44.9356
55.18 57.3216 -40.5552
63.1308 58.3202 -43.3153
-65.716 45.8517 -35.9772
-59.2434 45.4688 -34.7256
-65.4981 53.344 -30.225
-59.0234 52.8842 -28.8827
55.9632 121.025 -21.2416
55.7486 113.47 -24.5803
63.1984 115.459 -30.1789
38.4086 63.3582 -32.1889
46.9889 64.4902 -35.2681
38.5687 71.2362 -29.0791
47.0866 72.5568 -32.744
-84.983 78.2669 -19.5382
-75.2861 76.6953 -15.969
-84.5841 85.9557 -14.4079
-74.9111 84.1077 -10.522
-33.8463 72.9248 -8.07803
-26.3443 72.8155 -7.99021
-33.4609 79.7505 -2.25952
-25.9626 79.6487 -2.25933
-86.1577 47.3278 -40.8052
-76.3746 46.6109 -38.4541
-85.9076 55.1651 -35.5934
-76.1471 54.2697 -32.9523
39.4482 101.942 -16.2639
39.1914 94.3684 -19.5713
47.719 103.85 -21.8466
47.5206 96.1679 -24.793
-34.9663 44.6267 -31.8574
-27.4493 44.5026 -31.3889
-34.742 51.9152 -26.0464
-27.2308 51.7923 -25.6664
13.885 60.6427 -24.7385
14.146 68.0396 -20.1293
6.76695 59.9947 -22.8995
7.042 67.2773 -17.937
70.5241 76.5162 -43.6724
70.6701 67.9402 -44.7641
-51.1613 59.6578 -21.6018
-42.751 59.2786 -20.6539
-50.8729 66.7269 -15.4896
-42.4562 66.293 -14.5588
8.49479 95.9097 1.04434
8.07988 88.7708 -3.44443
15.5104 97.1133 -2.34327
15.1227 89.8727 -6.5979
-51.8355 37.5769 -39.1668
-43.4314 37.3276 -38.1775
70.2989 109.484 -37.5902
70.2883 101.467 -39.5852
-49.7379 87.5261 2.04219
-41.3016 86.8866 2.95279
22.2202 83.8068 -14.4149
21.9221 76.4076 -18.5554
30.3661 85.181 -18.3611
30.1064 77.6337 -22.0407
-115.79 75.155 -36.2075
-20.1153 58.8761 -19.6911
-13.5228 58.9293 -19.8499
-19.8254 65.8944 -13.8771
-13.2351 65.9847 -14.1723
21.2048 53.7894 -31.0994
21.0331 46.0372 -35.2427
29.4851 54.5335 -33.0881
29.3404 46.6233 -36.765
23.2807 105.872 -2.50779
31.2964 107.577 -7.38642
-20.7511 36.9372 -36.4796
-14.1467 36.911 -36.2824
-114.174 101.002 -24.333
-108.738 99.6175 -21.3779
-18.6965 86.5143 2.91459
-12.119 86.7419 2.26069
-11.6596 93.6369 7.21142
7.69904 81.6368 -8.14998
7.35295 74.4818 -13.0019
14.7657 82.629 -11.0148
14.44 75.3597 -15.541
70.3268 93.2896 -41.188
70.4076 84.9685 -42.514
-50.5437 73.704 -9.43233
-42.1199 73.2088 -8.51546
-50.1676 80.6244 -3.5455
-41.7368 80.061 -2.63653
13.4705 45.5194 -33.8582
13.659 53.1443 -29.3281
6.33006 45.0856 -32.6895
6.52904 52.6065 -27.8348
8.94265 103.078 5.2425
15.9282 104.372 1.69308
70.8395 59.2471 -45.8873
71.0271 50.4447 -47.1367
-51.6377 45.1135 -33.5458
-43.2346 44.8262 -32.5661
-51.4145 52.4637 -27.6569
-43.0091 52.1333 -26.6917
38.7529 79.0231 -25.9553
47.2072 80.5218 -30.1897
38.9602 86.7308 -22.794
47.3511 88.3913 -27.5565
-115.311 83.6689 -32.0451
-114.776 92.2713 -28.0536
-19.4937 72.8173 -8.106
-12.9061 72.9494 -8.53444
-19.118 79.6788 -2.47328
-12.5344 79.857 -3.0241
38.1718 47.2829 -38.4534
46.8674 48.0284 -40.4093
38.2749 55.3775 -35.3072
46.9149 56.3159 -37.8087
39.7326 109.456 -12.8499
48.2117 118.951 -15.2272
47.9497 111.438 -18.6653
-20.5769 44.4278 -31.0799
-13.978 44.4224 -30.9856
-20.3653 51.7308 -25.4555
-13.7701 51.752 -25.482
