-62.5347 508.968 -158.921
-90.7729 424.077 -125.301
-67.1621 453.097 -1.8529
-42.3988 567.063 -50.7482
-65.6387 446.297 -33.5555
-65.7332 443.457 -45.19
-65.7975 448.069 -20.7551
-69.1562 487.926 -36.3655
-68.5187 479.081 -38.7587
-68.5411 479.516 -28.5802
-66.7146 452.913 -48.9922
-66.7739 458.927 -27.5945
-69.4141 489.882 -24.1879
-67.0348 459.686 -15.2323
-68.878 480.58 -16.6666
-68.3054 470.855 -9.6671
-67.7883 469.889 -21.7607
-69.0673 485.416 -48.9668
-69.3012 482.536 -60.7709
-68.5566 473.13 -57.0477
-68.0185 471.96 -45.3145
-67.6322 463.048 -53.0405
-67.7373 470.13 -33.7236
-67.0104 460.713 -40.3897
-68.6794 492.254 -64.0171
-67.3626 517.704 -42.7025
-67.2832 513.209 -56.6059
-67.8532 507.615 -46.4851
-68.1567 499.953 -54.587
-68.7624 499.266 -30.4347
-68.5071 498.056 -42.4582
-67.8741 502.776 -67.5403
-66.2262 525.304 -62.2067
-66.0617 523.304 -73.9827
-67.0587 513.189 -70.9541
-68.0647 508.777 -35.972
-66.6918 529.312 -37.4814
-66.4261 527.428 -49.8429
-67.6581 519.71 -30.4166
-68.428 510.296 -24.1912
-63.062 538.842 -44.9765
-59.3019 548.757 -52.5367
-62.9486 537.199 -57.3651
-62.7874 535.554 -69.5507
-59.4939 544.413 -80.756
-63.0034 533.195 -78.444
-55.4015 558.265 -59.8946
-59.3726 547.09 -65.3253
-55.6454 556.484 -72.4973
-55.1832 559.649 -47.5223
-46.4252 564.334 -54.3809
-60.0056 539.508 -92.5897
-61.1082 534.173 -101.554
-71.8696 509.45 -117.087
-67.1484 514.939 -132.417
-73.2002 506.2 -127.357
-65.9406 520.538 -115.898
-67.4608 519.635 -84.3591
-68.9548 516.153 -95.2809
-65.2085 524.132 -103.761
-70.4219 512.809 -106.151
-60.4513 532.682 -112.272
-64.2474 528.083 -92.1959
-70.8638 493.849 -76.0147
-72.7135 479.392 -71.2869
-81.4507 478.557 -109.342
-76.6998 488.672 -101.315
-78.6687 488.099 -115.444
-75.9094 497.459 -121.657
-80.2291 473.162 -93.3431
-83.9437 469.249 -103.703
-73.7686 485.943 -81.3839
-76.5483 475.991 -82.2563
-73.048 494.201 -88.2551
-69.6453 506.519 -83.2416
-72.135 503.265 -97.5774
-76.0628 483.892 -89.5354
-74.3623 499.721 -109.853
-70.2664 453.626 -60.3356
-78.691 438.682 -83.4078
-76.6223 448.564 -78.5786
-80.4437 449.193 -90.0476
-75.6663 439.22 -74.5937
-77.929 461.348 -84.0638
-73.9443 456.729 -71.6542
-74.5452 467.539 -74.8072
-82.2309 459.595 -96.7507
-69.2273 439.044 -55.6681
-71.2307 465.275 -64.6656
-73.0643 445.167 -67.6112
-64.6151 513.274 -144.944
-67.3751 504.886 -150.999
-72.8864 500.544 -139.07
-72.5566 494.586 -151.68
-85.9325 464.367 -116.054
-84.2439 468.795 -127.391
-88.0685 458.972 -128.693
-80.9494 476.438 -133.892
-76.8419 485.823 -142.324
-84.9772 465.358 -137.775
-81.496 477.453 -121.71
-77.8675 487.609 -128.758
-85.0634 437.299 -103.993
-83.3518 448.349 -100.454
-85.6851 448.779 -110.565
-84.3087 458.126 -105.678
-87.9226 448.248 -121.724
-90.1418 434.935 -126.036
-87.6648 436.711 -114.549
-82.1947 437.145 -93.746
