-128.042 -190.031 -228.545
-129.003 -190.812 -227.997
-128.958 -190.474 -229.378
-130.005 -191.129 -229.539
-128.241 -189.83 -230.021
-127.868 -190.222 -227.177
-130.076 -191.48 -228.14
-129.272 -190.348 -230.669
-127.224 -189.255 -229.44
-127.074 -189.438 -228.024
-128.631 -190.911 -226.327
-130.975 -191.89 -228.828
-129.764 -191.542 -226.635
-130.319 -190.883 -231.119
-127.417 -189.048 -230.913
-128.473 -189.569 -231.523
-126.979 -189.661 -226.645
-127.695 -190.396 -225.856
-130.758 -191.994 -227.5
-131.174 -191.718 -230.089
-129.503 -190.046 -232.061
-126.546 -188.61 -230.059
-126.32 -188.663 -228.811
-126.225 -188.817 -227.483
-129.526 -191.595 -224.987
-128.528 -191.06 -224.896
-131.693 -192.384 -228.173
-132.041 -192.342 -229.382
-130.614 -192.059 -226.444
-130.62 -190.6 -232.496
-131.459 -191.477 -231.457
-127.607 -188.792 -232.281
-126.514 -188.259 -231.471
-128.625 -189.259 -232.792
-126.874 -189.866 -225.043
-126.105 -188.968 -226.118
-130.578 -192.134 -225.283
-127.699 -190.585 -224.661
-131.757 -192.618 -226.43
-132.247 -192.156 -230.649
-129.76 -189.823 -233.188
-125.711 -187.89 -229.737
-125.508 -187.982 -228.138
-125.386 -188.121 -226.768
-129.427 -191.572 -223.31
-130.715 -192.216 -223.578
-128.364 -191.027 -223.644
-132.921 -192.937 -228.085
-133.338 -192.782 -229.843
-131.696 -191.146 -232.836
-130.857 -190.326 -233.735
-132.511 -191.907 -231.942
-127.794 -188.546 -233.572
-126.817 -188.077 -233.12
-125.639 -187.563 -231.194
-128.877 -189.075 -234.001
-126.092 -189.183 -224.749
-127.543 -190.497 -223.422
-125.319 -188.354 -225.117
-131.616 -192.669 -224.528
-133.157 -193.286 -226.365
-133.21 -192.422 -231.286
-129.995 -189.604 -234.471
-125.86 -187.512 -232.599
-125.031 -187.09 -230.113
-124.851 -187.117 -228.817
-124.724 -187.257 -227.471
-126.707 -189.845 -223.412
-124.681 -187.487 -226.237
-128.432 -190.966 -222.091
-130.59 -192.065 -222.018
-132.23 -192.896 -223.353
-134.241 -193.35 -228.522
-134.049 -193.534 -227.249
-132.769 -193.191 -224.7
-134.496 -192.904 -231.225
-131.916 -190.806 -234.181
-132.774 -191.611 -233.21
-131.084 -190.069 -235.027
-133.634 -192.256 -232.477
-128.003 -188.362 -234.92
-126.942 -187.817 -234.539
-125.991 -187.326 -233.988
-124.989 -186.861 -231.456
-129.079 -188.875 -235.419
-125.934 -189.14 -223.423
-127.427 -190.362 -222.148
-129.596 -191.55 -221.604
-131.805 -192.591 -222.045
-134.62 -193.246 -229.744
-133.995 -193.689 -226.116
-133.661 -193.601 -225.219
-130.141 -189.341 -235.888
-125.062 -186.748 -232.991
-124.25 -186.261 -229.729
-124.19 -186.476 -228.166
-128.631 -190.894 -220.488
-130.542 -191.954 -220.857
-131.723 -192.342 -220.352
-133.065 -193.285 -223.709
-132.855 -193.043 -222.243
-127.625 -190.362 -220.942
-133.779 -193.602 -224.144
-132.215 -190.513 -235.396
-133.075 -191.285 -234.505
-133.901 -191.972 -233.729
-131.33 -189.79 -236.186
-127.272 -187.668 -236.093
-128.353 -188.299 -236.187
-126.14 -187.133 -235.324
-125.193 -186.619 -234.462
-124.134 -185.971 -231.639
-129.283 -188.679 -236.711
-129.789 -191.491 -220.143
-133.004 -192.894 -220.795
-133.431 -193.366 -223.163
-130.397 -189.054 -237.007
-124.371 -186.09 -233.278
-123.364 -185.225 -230.004
-123.39 -185.537 -228.041
-130.903 -191.917 -219.621
-133.3 -192.551 -218.856
-133.907 -193.404 -222.035
-133.372 -190.873 -235.665
-132.524 -190.108 -236.423
-134.216 -191.635 -234.884
-131.594 -189.301 -237.227
-128.408 -187.882 -237.513
-126.411 -187.036 -236.483
-125.324 -186.358 -236.168
-124.332 -185.86 -234.623
-123.361 -185.149 -231.696
-123.56 -185.28 -233.228
-129.695 -188.451 -237.632
-130.07 -191.402 -218.865
-131.938 -192.026 -218.541
-134.423 -193.275 -220.348
-134.63 -193.833 -223.425
-130.763 -188.551 -237.987
-127.197 -187.303 -237.299
-122.756 -184.462 -231.498
-128.916 -190.795 -218.861
-130.899 -191.623 -218.366
-132.926 -191.831 -216.864
-134.706 -192.974 -218.836
-133.806 -190.413 -236.632
-132.955 -189.599 -237.376
-132.07 -188.747 -238.189
-127.582 -187.069 -238.241
-126.376 -186.64 -237.592
-129.829 -187.787 -238.598
-124.287 -185.603 -235.89
-123.559 -185.074 -234.945
-122.872 -184.531 -232.854
-122.625 -184.387 -230.107
-131.204 -191.379 -217.195
-134.552 -192.567 -217.608
-131.333 -187.985 -238.926
-128.632 -187.328 -238.619
-125.37 -186.029 -237.507
-124.563 -185.567 -237.013
-122.827 -184.336 -234.239
-122.191 -183.635 -233.184
-122.085 -183.638 -231.518
-134.673 -192.165 -216.213
-128.297 -186.596 -239.303
-126.955 -186.274 -238.779
-125.858 -185.847 -238.345
-129.482 -187.054 -239.345
-123.685 -184.943 -236.312
-122.955 -184.253 -235.587
-130.638 -187.204 -239.6
-133.853 -191.551 -215.295
-124.87 -185.344 -237.955
-123.958 -184.82 -237.411
-131.934 -187.429 -239.745
-132.726 -191.242 -215.416
-135.317 -191.874 -214.924
-129.805 -186.383 -240.134
-127.497 -185.745 -239.726
-126.437 -185.377 -239.244
-125.391 -184.88 -238.76
-123.174 -184.171 -236.78
-131.409 -186.584 -240.339
-134.617 -191.222 -214.14
-128.544 -185.941 -240.13
-124.345 -184.406 -238.246
-123.459 -183.927 -237.713
-129.383 -185.502 -240.724
-128.124 -185.173 -240.537
-127.054 -184.793 -240.151
-126.058 -184.313 -239.67
-124.965 -183.766 -239.137
-131.049 -185.615 -240.91
-130.054 -184.76 -241.196
-128.744 -184.566 -241.067
-127.619 -184.176 -240.912
-126.654 -183.661 -240.621
-131.418 -184.697 -241.35
-131.196 -183.692 -241.588
-129.708 -183.63 -241.495
-128.339 -183.456 -241.368
-127.208 -183.058 -241.252
-130.973 -182.518 -241.762
-129.633 -182.286 -241.697
