44.3012 65.2808 -33.842
130.346 86.128 -47.5288
135.843 165.02 -35.5046
55.9431 140.84 -9.77085
115.936 150.987 -31.7608
109.442 149.542 -32.1934
116.19 142.078 -34.1304
109.591 140.922 -34.9407
63.5701 130.565 -23.2357
63.802 137.956 -19.0199
56.208 128.492 -17.519
56.473 135.886 -13.4277
55.2073 73.9334 -36.5932
62.9955 75.2788 -40.3243
117.327 115.305 -40.6908
110.504 114.805 -41.8607
117.826 106.375 -42.6641
110.96 106.012 -43.7224
55.434 98.0125 -30.1227
63.0006 99.807 -35.1697
55.5719 105.805 -27.527
63.0764 107.71 -32.897
135.161 156.682 -35.8093
90.3738 145.405 -33.098
84.0111 143.758 -31.3995
90.2666 137.564 -36.8224
83.8663 136.104 -35.3758
90.4356 113.284 -44.7111
83.8232 112.316 -43.6798
90.6771 104.894 -46.3137
83.9675 104.058 -45.3264
111.474 97.1774 -45.4244
112.033 88.3038 -47.019
118.372 97.4399 -44.5602
118.954 88.4968 -46.4078
55.2558 82.0715 -34.5781
62.9654 83.5807 -38.7849
55.3301 90.099 -32.4467
62.9654 91.7596 -37.0987
116.506 133.157 -36.4208
109.817 132.258 -37.4772
116.885 124.232 -38.6125
110.122 123.552 -39.787
55.9632 121.025 -21.2416
55.7486 113.47 -24.5803
63.3657 123.071 -26.9584
63.1984 115.459 -30.1789
47.0866 72.5568 -32.744
84.1998 151.295 -26.8211
90.5396 153.139 -28.8345
84.182 95.6365 -46.5681
84.4539 87.0721 -47.523
90.2337 129.605 -39.9997
83.7788 128.321 -38.7452
90.2869 121.516 -42.6273
83.7608 120.398 -41.5096
128.907 154.573 -33.5626
122.495 152.658 -32.1538
129.401 145.112 -35.1907
122.864 143.465 -34.141
70.8495 139.998 -24.0938
70.6491 132.57 -28.3395
77.5806 141.952 -28.3288
77.4087 134.437 -32.4918
77.7636 77.57 -46.3952
70.5241 76.5162 -43.6724
131.001 117.013 -40.7968
124.221 116.027 -40.2636
131.577 107.777 -42.8376
124.757 106.95 -42.3045
77.2029 111.042 -41.2731
70.2989 109.484 -37.5902
77.263 102.907 -43.0531
70.2883 101.467 -39.5852
103.049 148.212 -32.925
96.6842 146.871 -33.4448
103.099 139.874 -36.0303
96.6428 138.799 -36.8795
103.777 114.396 -43.2683
97.0694 113.943 -44.4281
104.179 105.736 -45.0093
97.4026 105.416 -46.0701
125.325 97.9011 -44.344
125.918 88.874 -46.3886
77.7865 149.348 -23.553
77.3826 94.6045 -44.4206
70.3268 93.2896 -41.188
77.5525 86.1539 -45.4964
70.4076 84.9685 -42.514
129.913 135.688 -36.9537
123.273 134.288 -36.169
130.446 126.317 -38.8297
123.725 125.139 -38.2164
70.3648 117.329 -35.0863
77.2099 118.997 -38.9581
70.4844 125.018 -32.0048
77.2817 126.789 -36.0346
47.2072 80.5218 -30.1897
96.8009 154.85 -29.5708
103.079 156.476 -29.501
97.8113 96.7749 -47.3963
104.649 96.9964 -46.5087
103.235 131.46 -38.7963
96.6889 130.625 -39.8591
103.461 122.968 -41.2103
96.8295 122.342 -42.3752
