-34.901 -62.8514 32.7228
-32.7436 -63.4745 7.34211
-40.8204 -116.052 8.1161
-36.4318 -112.924 34.7187
-32.9598 -64.0574 24.3821
-33.3496 -64.0541 25.2205
-33.7271 -64.0509 26.0578
-34.0754 -64.0479 26.8969
-34.3742 -64.0451 27.7426
-34.6122 -64.0424 28.5962
-34.7845 -64.0398 29.4586
-34.8927 -64.0375 30.3291
-34.9455 -64.0352 31.2057
-34.9607 -64.0331 32.0824
-32.9493 -65.6442 24.5942
-33.3448 -65.6407 25.4404
-33.7293 -65.6372 26.2854
-34.0858 -65.6339 27.1324
-34.3938 -65.6308 27.9866
-34.6418 -65.6278 28.8494
-34.8246 -65.625 29.7219
-34.9429 -65.6223 30.6029
-35.0045 -65.6198 31.4903
-35.0269 -65.6173 32.3778
-32.8655 -67.3482 7.39765
-32.9499 -67.2333 24.7997
-33.3494 -67.2296 25.6534
-33.7393 -67.2259 26.5059
-34.1023 -67.2225 27.3606
-34.4178 -67.2191 28.2231
-34.6743 -67.216 29.0948
-34.8663 -67.2129 29.9769
-34.9934 -67.2101 30.8682
-35.0627 -67.2073 31.7661
-35.0916 -67.2047 32.6638
-32.9404 -68.9396 7.4366
-32.9648 -68.8246 24.9977
-33.3666 -68.8208 25.8587
-33.7601 -68.817 26.7184
-34.128 -68.8135 27.5806
-34.4495 -68.81 28.451
-34.713 -68.8067 29.3314
-34.9128 -68.8036 30.2229
-35.0476 -68.8006 31.1241
-35.1238 -68.7978 32.0321
-35.1582 -68.795 32.9396
-33.0348 -70.531 7.4754
-33.0006 -70.4178 25.1875
-33.4034 -70.414 26.0556
-33.7991 -70.4103 26.9223
-34.1705 -70.4067 27.7917
-34.4966 -70.4032 28.6698
-34.7659 -70.3999 29.5585
-34.9724 -70.3968 30.459
-35.114 -70.3937 31.3697
-35.1963 -70.3908 32.2874
-33.1482 -72.1224 7.514
-33.0566 -72.0131 25.3687
-33.4587 -72.0094 26.2435
-33.855 -72.0057 27.1169
-34.2283 -72.0022 27.9932
-34.5576 -71.9988 28.8786
-34.8313 -71.9955 29.7753
-35.0433 -71.9924 30.6845
-35.1908 -71.9894 31.6042
-35.2783 -71.9865 32.5311
-33.2797 -73.7138 7.55231
-32.8604 -73.7069 8.39891
-33.1301 -73.6106 25.5404
-33.5299 -73.607 26.4215
-33.9251 -73.6036 27.3014
-34.2985 -73.6002 28.1843
-34.6293 -73.5969 29.0767
-34.9059 -73.5938 29.981
-35.1222 -73.5908 30.8983
-35.2743 -73.588 31.8267
-35.3661 -73.5852 32.7623
-33.429 -75.3052 7.59027
-33.012 -75.299 8.44343
-32.8314 -75.2139 24.8107
-33.2205 -75.2105 25.7018
-33.6163 -75.2071 26.589
-34.0084 -75.2039 27.4749
-34.3802 -75.2007 28.3641
-34.7108 -75.1977 29.2632
-34.9887 -75.1948 30.1746
-35.2076 -75.1921 31.0997
-35.3631 -75.1894 32.0363
-35.4583 -75.1868 32.98
-33.5956 -76.8967 7.6278
-33.1823 -76.8912 8.48726
-32.7969 -76.8857 9.37465
-32.9448 -76.8157 24.9557
-33.327 -76.8126 25.8524
-33.7167 -76.8096 26.7452
-34.1039 -76.8067 27.6369
-34.4721 -76.8039 28.532
-34.8005 -76.8012 29.4374
-35.0779 -76.7987 30.3555
-35.298 -76.7962 31.2879
-35.4556 -76.7938 32.2321
-35.5529 -76.7916 33.1835
-33.7792 -78.4883 7.66486
-33.3713 -78.4837 8.53033
-32.9905 -78.479 9.42369
-33.0753 -78.4197 25.0897
-33.4487 -78.4171 25.9916
-33.8302 -78.4146 26.8896
-34.2104 -78.4121 27.7866
-34.5729 -78.4097 28.6873
-34.8972 -78.4074 29.5986
-35.1723 -78.4052 30.523
-35.3918 -78.4032 31.4621
-35.5499 -78.4012 32.4134
-33.9794 -80.08 7.70134
-33.5784 -80.0763 8.5725
-33.2038 -80.0727 9.47145
-32.8749 -80.0693 10.349
-32.8613 -80.0282 24.2567
-33.222 -80.026 25.2119
-33.5845 -80.024 26.1184
-33.9558 -80.022 27.0213
-34.3268 -80.02 27.9233
-34.6813 -80.0181 28.8291
-34.9994 -80.0163 29.7458
-35.2702 -80.0146 30.676
-35.4873 -80.013 31.6213
-35.6445 -80.0115 32.5791
-34.1957 -81.6718 7.73721
-33.8033 -81.6693 8.61372
-33.4363 -81.6667 9.51786
-33.1138 -81.6644 10.4001
-32.8178 -81.662 11.307
-32.7451 -81.6374 23.4827
-33.0366 -81.6359 24.3622
-33.3834 -81.6344 25.3216
-33.7327 -81.633 26.2324
-34.0914 -81.6316 27.1396
-34.4508 -81.6302 28.0462
-34.795 -81.6289 28.9568
-35.1046 -81.6277 29.8784
-35.369 -81.6265 30.8139
-35.5818 -81.6255 31.7648
-35.7363 -81.6245 32.7285
-34.4272 -83.2637 7.77251
-34.0448 -83.2625 8.65404
-33.6868 -83.2612 9.56295
-33.3719 -83.26 10.4494
-33.0824 -83.2589 11.3603
-32.8211 -83.2577 12.2913
-32.9482 -83.2467 23.5731
-33.225 -83.246 24.4558
-33.5553 -83.2452 25.4189
-33.889 -83.2445 26.3333
-34.2326 -83.2438 27.2445
-34.5776 -83.2432 28.1552
-34.909 -83.2425 29.0702
-35.2075 -83.242 29.9963
-35.463 -83.2415 30.9365
-35.6694 -83.2411 31.8925
-35.8193 -83.2407 32.8614
-34.673 -84.8548 7.80708
-34.3021 -84.8549 8.69327
-33.9544 -84.855 9.60652
-33.6481 -84.8551 10.4967
-33.3661 -84.8552 11.411
-33.111 -84.8552 12.3451
-32.8919 -84.8553 13.2584
-32.9213 -84.8559 22.7173
-33.1636 -84.856 23.6513
-33.4235 -84.856 24.5365
-33.7348 -84.856 25.5026
-34.0502 -84.8561 26.4203
-34.376 -84.8561 27.3349
-34.7039 -84.8562 28.2493
-35.0195 -84.8562 29.1682
-35.3042 -84.8563 30.0983
-35.5483 -84.8565 31.0427
-35.7457 -84.8567 32.0031
-35.8889 -84.857 32.9766
-34.9332 -86.4422 7.84053
-34.5754 -86.443 8.73094
-34.2395 -86.4438 9.64803
-33.9431 -86.4446 10.5414
-33.6698 -86.4454 11.4585
-33.4219 -86.4461 12.3951
-33.2084 -86.4467 13.3105
-33.0205 -86.4474 14.2454
-32.8653 -86.4479 15.1881
-32.747 -86.4485 16.1486
-32.835 -86.4504 20.8973
-32.9845 -86.4507 21.8423
-33.1727 -86.451 22.7804
-33.3965 -86.4512 23.716
-33.6377 -86.4513 24.6031
-33.9277 -86.4515 25.5717
-34.2226 -86.4517 26.4919
-34.5282 -86.4518 27.4095
-34.8366 -86.4519 28.3271
-35.134 -86.452 29.2494
-35.4026 -86.4521 30.183
-35.633 -86.4523 31.1308
-35.8194 -86.4525 32.095
-35.954 -86.4528 33.0723
-35.2008 -87.992 7.8721
-34.8572 -87.9933 8.76625
-34.5343 -87.9947 9.68662
-34.2489 -87.9958 10.5826
-33.9851 -87.997 11.5018
-33.7453 -87.9981 12.4402
-33.5382 -87.9991 13.3571
-33.3551 -88 14.2933
-33.2028 -88.0008 15.2365
-33.0852 -88.0015 16.1972
-33.011 -88.0021 17.1381
-32.9781 -88.0027 18.0909
-32.9872 -88.0031 19.0435
-33.039 -88.0035 19.996
-33.1329 -88.0038 20.9465
-33.2666 -88.0041 21.8917
-33.4369 -88.0042 22.8305
-33.6411 -88.0043 23.767
-33.8624 -88.0044 24.6554
-34.1298 -88.0044 25.6257
-34.4028 -88.0044 26.548
-34.6865 -88.0043 27.4679
-34.9737 -88.0042 28.3882
-35.2512 -88.004 29.3133
-35.5019 -88.0039 30.2497
-35.717 -88.0038 31.2004
-35.8907 -88.0037 32.1675
-36.0153 -88.0037 33.1479
-35.4948 -89.6182 7.90399
-35.1676 -89.6203 8.80164
-34.8597 -89.6223 9.72498
-34.5869 -89.6241 10.6232
-34.3343 -89.6258 11.5441
-34.1041 -89.6275 12.4837
-33.9045 -89.629 13.4016
-33.7272 -89.6303 14.3384
-33.5787 -89.6316 15.2815
-33.4623 -89.6327 16.2415
-33.386 -89.6336 17.1818
-33.3474 -89.6344 18.134
-33.3477 -89.6351 19.086
-33.3875 -89.6357 20.0379
-33.4663 -89.6362 20.9877
-33.5823 -89.6366 21.9325
-33.7327 -89.6368 22.8711
-33.9149 -89.637 23.808
-34.1138 -89.6371 24.6971
-34.3556 -89.6371 25.6686
-34.6036 -89.637 26.5925
-34.8624 -89.6369 27.5143
-35.1253 -89.6367 28.4369
-35.3797 -89.6365 29.3645
-35.6095 -89.6363 30.3032
-35.8064 -89.636 31.2562
-35.965 -89.6358 32.2256
-36.0773 -89.6356 33.2084
-35.8037 -91.2607 7.93458
-35.4946 -91.2635 8.8353
-35.2031 -91.2663 9.76111
-34.9443 -91.2688 10.661
-34.7041 -91.2713 11.583
-34.4844 -91.2736 12.5233
-34.2933 -91.2758 13.4415
-34.1226 -91.2777 14.3782
-33.9786 -91.2795 15.3204
-33.8637 -91.2811 16.279
-33.7855 -91.2825 17.2179
-33.7415 -91.2837 18.1688
-33.7326 -91.2848 19.1195
-33.7598 -91.2857 20.0699
-33.8229 -91.2864 21.0182
-33.9202 -91.287 21.9618
-34.0494 -91.2875 22.8996
-34.2081 -91.2879 23.8362
-34.3831 -91.2881 24.7254
-34.5973 -91.2882 25.6975
-34.8184 -91.2883 26.6223
-35.0501 -91.2882 27.5455
-35.2864 -91.2881 28.4698
-35.5155 -91.2879 29.3993
-35.7222 -91.2877 30.3397
-35.8988 -91.2875 31.2943
-36.0402 -91.2872 32.2652
-36.1384 -91.287 33.2494
-36.1013 -92.7914 7.9613
-35.8101 -92.795 8.86444
-35.5349 -92.7985 9.79205
-35.29 -92.8017 10.693
-35.0621 -92.8047 11.6155
-34.8531 -92.8077 12.5558
-34.6705 -92.8103 13.4737
-34.5066 -92.8128 14.4098
-34.3672 -92.8151 15.3505
-34.2542 -92.8171 16.3071
-34.1745 -92.8189 17.244
-34.1254 -92.8204 18.1931
-34.108 -92.8218 19.1418
-34.1232 -92.823 20.0901
-34.1712 -92.824 21.0365
-34.2506 -92.8248 21.9782
-34.3592 -92.8254 22.9148
-34.4952 -92.8259 23.8504
-34.6469 -92.8263 24.7391
-34.8342 -92.8265 25.7111
-35.0289 -92.8266 26.6363
-35.2341 -92.8266 27.5603
-35.444 -92.8265 28.4857
-35.6479 -92.8264 29.4163
-35.8315 -92.8261 30.3576
-35.9876 -92.8259 31.3129
-36.1114 -92.8256 32.2844
-36.1951 -92.8253 33.2691
-36.4086 -94.3315 7.98626
-36.1363 -94.3357 8.89138
-35.8784 -94.3398 9.82033
-35.6484 -94.3435 10.7219
-35.4337 -94.3472 11.6443
-35.236 -94.3507 12.584
-35.0625 -94.3538 13.5011
-34.906 -94.3568 14.436
-34.7716 -94.3594 15.3747
-34.661 -94.3619 16.3286
-34.58 -94.364 17.263
-34.5259 -94.3658 18.2095
-34.4999 -94.3675 19.1556
-34.503 -94.3689 20.1014
-34.5355 -94.3701 21.045
-34.5964 -94.3711 21.9844
-34.6839 -94.3718 22.919
-34.7964 -94.3725 23.8531
-34.9239 -94.3729 24.7408
-35.0832 -94.3732 25.7123
-35.2503 -94.3734 26.6373
-35.4276 -94.3734 27.5614
-35.6098 -94.3734 28.4873
-35.787 -94.3732 29.4185
-35.9459 -94.373 30.3601
-36.08 -94.3727 31.3153
-36.1848 -94.3723 32.2866
-36.2525 -94.372 33.2709
-36.7416 -95.9629 8.01042
-36.4902 -95.9678 8.91714
-36.2514 -95.9725 9.84697
-36.0378 -95.9768 10.7486
-35.8376 -95.981 11.6705
-35.6526 -95.985 12.609
-35.4894 -95.9887 13.5247
-35.3411 -95.9921 14.4576
-35.2126 -95.9951 15.3936
-35.1047 -95.9979 16.3441
-35.0227 -96.0003 17.2751
-34.9636 -96.0025 18.2183
-34.9285 -96.0044 19.1611
-34.9187 -96.0061 20.1034
-34.9348 -96.0075 21.0436
-34.9759 -96.0086 21.9799
-35.0406 -96.0096 22.9118
-35.1276 -96.0103 23.8438
-35.229 -96.0109 24.7299
-35.3579 -96.0113 25.7001
-35.4949 -96.0115 26.6244
-35.6415 -96.0116 27.5481
-35.7932 -96.0116 28.4739
-35.9409 -96.0114 29.405
-36.0724 -96.0112 30.3461
-36.1818 -96.0108 31.3004
-36.2649 -96.0105 32.2705
-36.3144 -96.0101 33.2532
-37.0809 -97.5956 8.03209
-36.851 -97.601 8.9399
-36.6321 -97.6062 9.87008
-36.4355 -97.6111 10.7713
-36.2505 -97.6157 11.692
-36.0787 -97.6202 12.6288
-35.9262 -97.6243 13.5425
-35.7866 -97.628 14.4729
-35.6643 -97.6315 15.4056
-35.5596 -97.6346 16.3521
-35.4768 -97.6373 17.2792
-35.4129 -97.6397 18.2185
-35.369 -97.6419 19.1573
-35.3465 -97.6438 20.0956
-35.346 -97.6453 21.0319
-35.3672 -97.6467 21.9645
-35.409 -97.6478 22.8931
-35.4703 -97.6486 23.8224
-35.545 -97.6493 24.7063
-35.6429 -97.6498 25.6747
-35.7491 -97.6501 26.5977
-35.8643 -97.6502 27.5204
-35.9846 -97.6502 28.4454
-36.1016 -97.6501 29.3757
-36.2045 -97.6498 30.3156
-36.2879 -97.6495 31.268
-36.3481 -97.6491 32.2359
-36.378 -97.6487 33.216
-37.4041 -99.1313 8.05006
-37.1951 -99.1371 8.95843
-36.9952 -99.1427 9.88847
-36.815 -99.1479 10.7888
-36.6447 -99.1529 11.708
-36.4856 -99.1577 12.6427
-36.3436 -99.162 13.554
-36.2125 -99.1661 14.4816
-36.0964 -99.1698 15.4107
-35.9949 -99.1731 16.353
-35.9117 -99.1761 17.276
-35.8435 -99.1787 18.2111
-35.7915 -99.1811 19.1458
-35.7572 -99.1831 20.0798
-35.7414 -99.1848 21.0118
-35.744 -99.1863 21.9405
-35.7642 -99.1875 22.8656
-35.8013 -99.1885 23.7918
-35.8508 -99.1892 24.6734
-35.9193 -99.1898 25.6395
-35.9961 -99.1901 26.5607
-36.0813 -99.1903 27.4819
-36.1713 -99.1903 28.4056
-36.2587 -99.1902 29.3345
-36.3338 -99.19 30.2724
-36.3918 -99.1897 31.2223
-36.4294 -99.1893 32.1871
-36.4397 -99.1888 33.1637
-36.4169 -99.1883 34.1425
-37.7399 -100.714 8.06605
-37.5526 -100.72 8.97456
-37.3728 -100.726 9.904
-37.2098 -100.732 10.803
-37.0548 -100.737 11.7201
-36.9092 -100.742 12.6523
-36.7782 -100.746 13.5607
-36.6561 -100.751 14.485
-36.5466 -100.755 15.4099
-36.4487 -100.758 16.3475
-36.3653 -100.761 17.2658
-36.293 -100.764 18.1962
-36.233 -100.766 19.1262
-36.1868 -100.769 20.0554
-36.1555 -100.77 20.9827
-36.1392 -100.772 21.9069
-36.1374 -100.773 22.828
-36.1496 -100.774 23.7507
-36.1733 -100.775 24.6293
-36.2114 -100.776 25.5926
-36.2579 -100.776 26.5115
-36.3117 -100.776 27.4307
-36.3701 -100.776 28.3525
-36.4264 -100.776 29.2792
-36.4721 -100.776 30.2143
-36.5031 -100.776 31.1607
-36.5162 -100.775 32.1214
-36.5052 -100.775 33.0933
-36.4642 -100.774 34.0669
-38.0768 -102.296 8.07945
-37.9114 -102.302 8.98765
-37.7516 -102.308 9.91605
-37.6059 -102.314 10.8133
-37.4665 -102.319 11.728
-37.3344 -102.324 12.6572
-37.2145 -102.329 13.5624
-37.1016 -102.333 14.483
-36.9989 -102.337 15.4034
-36.9048 -102.341 16.3359
-36.8215 -102.344 17.2492
-36.7454 -102.347 18.1746
-36.6778 -102.349 19.0995
-36.6202 -102.352 20.0236
-36.5738 -102.354 20.9458
-36.5389 -102.355 21.8652
-36.5156 -102.356 22.782
-36.5033 -102.358 23.7007
-36.5014 -102.358 24.576
-36.5094 -102.359 25.5362
-36.5255 -102.36 26.4523
-36.548 -102.36 27.3689
-36.5746 -102.36 28.2881
-36.5995 -102.36 29.2121
-36.6152 -102.36 30.1437
-36.6184 -102.359 31.0857
-36.6062 -102.359 32.0412
-36.5729 -102.358 33.0073
-36.5126 -102.358 33.9746
-38.4132 -103.877 8.09023
-38.2696 -103.883 8.99774
-38.1298 -103.889 9.92471
-38.0014 -103.895 10.8199
-37.8776 -103.9 11.7318
-37.7591 -103.905 12.6576
-37.6503 -103.91 13.5593
-37.5467 -103.914 14.4759
-37.4508 -103.918 15.3916
-37.3607 -103.921 16.3188
-37.2777 -103.925 17.2268
-37.1982 -103.927 18.1469
-37.1234 -103.93 19.0664
-37.0549 -103.932 19.9852
-36.9939 -103.934 20.902
-36.9412 -103.936 21.8164
-36.8968 -103.937 22.7286
-36.8607 -103.938 23.6431
-36.8337 -103.939 24.5148
-36.812 -103.94 25.4714
-36.7981 -103.94 26.3844
-36.7895 -103.941 27.2979
-36.7841 -103.941 28.214
-36.7774 -103.941 29.1345
-36.7628 -103.941 30.0618
-36.7375 -103.94 30.9986
-36.6993 -103.94 31.9479
-36.6426 -103.94 32.9071
-36.5621 -103.939 33.8671
-38.7477 -105.457 8.09842
-38.6256 -105.463 9.00486
-38.5057 -105.469 9.93005
-38.3944 -105.474 10.8228
-38.286 -105.479 11.7317
-38.181 -105.484 12.6539
-38.0834 -105.489 13.5518
-37.9889 -105.493 14.4641
-37.8999 -105.497 15.3749
-37.814 -105.5 16.2966
-37.7316 -105.503 17.1992
-37.649 -105.506 18.1138
-37.5675 -105.508 19.0278
-37.4887 -105.511 19.941
-37.4139 -105.513 20.8524
-37.344 -105.514 21.7615
-37.2794 -105.516 22.6689
-37.2201 -105.517 23.5791
-37.1688 -105.518 24.447
-37.118 -105.519 25.3997
-37.0746 -105.519 26.3091
-37.0351 -105.52 27.2191
-36.9981 -105.52 28.1316
-36.9597 -105.52 29.0479
-36.9146 -105.52 29.9702
-36.8605 -105.52 30.9009
-36.7954 -105.519 31.8431
-36.7145 -105.519 32.7942
-36.6127 -105.518 33.7458
-39.0785 -107.036 8.10406
-38.9775 -107.042 9.00909
-38.8771 -107.047 9.9322
-38.7827 -107.052 10.8223
-38.6894 -107.057 11.7279
-38.5976 -107.061 12.6464
-38.511 -107.066 13.5402
-38.4256 -107.069 14.4481
-38.3435 -107.073 15.3539
-38.2617 -107.076 16.27
-38.1801 -107.079 17.1671
-38.0949 -107.082 18.0761
-38.0073 -107.084 18.9846
-37.9188 -107.087 19.8922
-37.831 -107.088 20.798
-37.7448 -107.09 21.7019
-37.661 -107.092 22.6044
-37.5795 -107.093 23.51
-37.5047 -107.094 24.3739
-37.4259 -107.095 25.3225
-37.3537 -107.095 26.2281
-37.2841 -107.096 27.1342
-37.2158 -107.096 28.0425
-37.1459 -107.096 28.9541
-37.0703 -107.096 29.8706
-36.987 -107.096 30.7944
-36.8944 -107.096 31.7284
-36.7883 -107.096 32.6704
-36.6644 -107.095 33.6125
-39.404 -108.614 8.1072
-39.3235 -108.619 9.01055
-39.2419 -108.624 9.93133
-39.1639 -108.628 10.8186
-39.0853 -108.632 11.7208
-39.0064 -108.636 12.6353
-38.9304 -108.64 13.525
-38.854 -108.644 14.4284
-38.7785 -108.647 15.3292
-38.701 -108.65 16.2399
-38.6204 -108.652 17.1314
-38.533 -108.655 18.0349
-38.4399 -108.657 18.9378
-38.3426 -108.659 19.8399
-38.2427 -108.661 20.7402
-38.1413 -108.663 21.6388
-38.0393 -108.664 22.5363
-37.9369 -108.665 23.4374
-37.8397 -108.666 24.2972
-37.7339 -108.667 25.2415
-37.634 -108.668 26.1431
-37.535 -108.669 27.0449
-37.4361 -108.669 27.9486
-37.3352 -108.67 28.8548
-37.2291 -108.67 29.7649
-37.1165 -108.67 30.681
-36.996 -108.67 31.6058
-36.864 -108.67 32.5375
-36.7169 -108.669 33.4691
-36.5523 -108.669 34.3841
-39.7227 -110.191 8.10792
-39.6618 -110.195 9.00935
-39.5984 -110.199 9.92761
-39.5361 -110.203 10.8119
-39.4716 -110.206 11.7106
-39.4052 -110.21 12.6211
-39.3395 -110.213 13.5067
-39.2715 -110.216 14.4056
-39.2027 -110.218 15.3015
-39.1292 -110.221 16.2068
-39.0499 -110.223 17.093
-38.9607 -110.225 17.991
-38.8628 -110.227 18.8885
-38.7575 -110.229 19.7851
-38.6466 -110.231 20.68
-38.5313 -110.232 21.5735
-38.4124 -110.234 22.4662
-38.2904 -110.235 23.3628
-38.1722 -110.236 24.2185
-38.0408 -110.237 25.1584
-37.9144 -110.238 26.0557
-37.787 -110.239 26.953
-37.6584 -110.24 27.8516
-37.5271 -110.24 28.7519
-37.3909 -110.241 29.655
-37.2489 -110.241 30.5625
-37.0999 -110.241 31.4771
-36.9413 -110.241 32.3976
-36.7703 -110.241 33.3177
-36.5854 -110.24 34.2224
-40.0329 -111.767 8.10631
-39.9907 -111.77 9.00563
-39.9446 -111.773 9.92123
-39.8972 -111.776 10.8025
-39.8461 -111.778 11.6976
-39.7916 -111.781 12.6042
-39.7356 -111.783 13.4857
-39.6759 -111.785 14.3802
-39.6132 -111.787 15.2713
-39.5439 -111.789 16.1715
-39.466 -111.791 17.0526
-39.3755 -111.793 17.9453
-39.2735 -111.795 18.8376
-39.1613 -111.797 19.7291
-39.0405 -111.798 20.6189
-38.9125 -111.8 21.5074
-38.7784 -111.801 22.3955
-38.6383 -111.803 23.2876
-38.5005 -111.804 24.1393
-38.3452 -111.805 25.0749
-38.1936 -111.806 25.9678
-38.0392 -111.807 26.8603
-37.8818 -111.808 27.7534
-37.7208 -111.809 28.6472
-37.555 -111.81 29.5426
-37.3837 -111.81 30.4408
-37.206 -111.811 31.3444
-37.02 -111.811 32.2525
-36.8242 -111.811 33.16
-36.6186 -111.811 34.0538
-40.333 -113.342 8.10243
-40.3083 -113.344 8.99949
-40.2783 -113.345 9.91235
-40.245 -113.347 10.7906
-40.2066 -113.349 11.6822
-40.1631 -113.35 12.585
-40.1163 -113.352 13.4625
-40.0642 -113.353 14.3527
-40.0075 -113.354 15.2393
-39.9422 -113.356 16.1348
-39.8658 -113.357 17.0111
-39.7745 -113.359 17.8988
-39.6692 -113.36 18.7862
-39.5511 -113.362 19.6729
-39.4218 -113.363 20.5578
-39.2827 -113.365 21.4418
-39.1349 -113.366 22.3255
-38.9786 -113.368 23.2135
-38.8229 -113.369 24.0612
-38.6454 -113.371 24.9925
-38.4704 -113.372 25.881
-38.2903 -113.373 26.7684
-38.1055 -113.375 27.6557
-37.9158 -113.376 28.5426
-37.7209 -113.377 29.4297
-37.5205 -113.378 30.3178
-40.6128 -114.917 8.99104
-40.5977 -114.917 9.90114
-40.5773 -114.917 10.7763
-40.5506 -114.917 11.6647
-40.5174 -114.918 12.5638
-40.4791 -114.918 13.4375
-40.4341 -114.919 14.3237
-40.3829 -114.919 15.2062
-40.3213 -114.92 16.0973
-40.2467 -114.921 16.9692
