-24.5018 92.7058 7.84485
11.4082 104.947 4.7708
40.5304 117.009 -9.70214
60.1116 126.706 -22.0762
69.253 160.199 -7.40712
68.107 184.194 12.6117
67.5069 216.067 27.8483
34.2036 226.941 27.0152
-17.8904 197.406 17.2604
-17.5474 160.886 22.5959
-18.7046 128.077 23.9866
3.70771 123.659 18.3442
-2.93055 122.59 20.4434
3.16171 116.347 15.4677
-3.5022 115.352 17.6637
8.75515 184.32 24.4019
2.49621 182.006 24.0337
7.91116 176.702 24.4064
1.58178 174.666 24.3367
56.208 128.492 -17.519
56.473 135.886 -13.4277
65.4248 196.851 21.9309
58.1875 195.644 23.5532
65.3244 189.074 17.5742
58.0562 187.724 19.7124
5.91366 153.8 24.0163
-0.587723 152.345 25.0278
5.34978 146.189 23.3757
-1.19417 144.861 24.7401
11.9969 207.189 25.3218
5.98213 203.718 24.4902
64.5495 159.688 -3.75729
64.7842 166.892 1.81566
57.2685 157.811 0.71162
57.5043 165.127 5.72504
32.4182 129.963 3.15666
24.5472 128.156 7.86407
32.0333 122.466 -0.260266
24.1119 120.667 4.64435
35.2612 192.902 23.5122
28.0995 191.233 23.4146
34.8453 184.615 21.7793
27.5471 183.002 22.2623
-15.7562 176.611 19.825
-16.879 170.112 20.8589
33.8296 160.62 15.1021
26.2131 158.971 17.684
33.5033 152.845 12.4176
25.8098 151.148 15.6846
36.941 218.933 27.0399
30.2712 216.845 26.0553
-10.2412 200.966 19.3502
-11.6534 194.863 19.0325
4.8041 138.605 22.2897
-1.77572 137.378 23.9674
4.25838 131.08 20.6272
-2.35211 129.936 22.554
10.8423 199.473 24.8583
4.74157 196.44 24.106
9.73574 191.897 24.5329
3.55297 189.252 23.9331
64.0499 145.259 -14.3272
64.3021 152.491 -9.20236
56.746 143.224 -8.98857
57.0141 150.522 -4.2442
65.4787 204.917 25.5025
58.3055 203.836 26.7094
7.17318 169.065 24.4206
0.77937 167.262 24.6944
6.51466 161.429 24.3277
0.0632685 159.817 24.9687
2.6322 109.131 12.0496
-4.05502 108.21 14.2711
2.12795 101.992 8.14453
-4.57989 101.146 10.3245
64.9973 174.154 7.34126
65.18 181.528 12.6507
57.7163 172.517 10.6548
57.9004 180.032 15.3636
48.4973 126.41 -11.5487
48.7968 133.834 -7.65151
40.3723 124.394 -5.72335
40.7107 131.861 -2.06445
36.335 210 26.1747
29.4918 208.083 25.3324
35.7588 201.352 24.9851
28.7493 199.581 24.4366
-13.1064 188.895 18.8989
-14.4971 182.864 19.1394
34.4834 176.484 19.7944
27.064 174.886 20.9444
34.1516 168.492 17.5653
26.626 166.879 19.4281
17.3169 126.478 11.9866
10.4343 124.97 15.4903
16.8387 119.032 8.90501
9.91988 117.587 12.5174
21.4585 189.068 23.8196
15.0573 186.719 24.2405
20.7912 180.989 23.1192
14.2953 178.85 23.9169
19.1951 157.192 20.1775
12.4863 155.444 22.3381
18.7284 149.4 18.7098
11.9684 147.727 21.3117
24.0497 213.939 25.7884
17.9997 210.658 25.651
33.1621 145.147 9.52364
25.4027 143.4 13.3997
32.7987 137.52 6.42894
24.9812 135.732 10.7925
50.693 194.752 24.2124
42.968 193.976 24.0103
50.5023 186.667 21.0345
42.6791 185.75 21.5698
-9.44639 121.813 21.6924
-15.9297 121.307 22.2725
-10.0426 114.645 19.0203
-16.5564 114.203 19.7147
-3.60664 179.895 22.9759
-9.60767 178.059 21.4581
-4.58845 172.845 23.5543
-10.6577 171.296 22.2831
49.8947 163.54 9.30777
41.9232 162.096 12.3894
49.6513 156.068 5.00853
41.6538 154.453 8.89854
23.687 113.246 1.17343
31.6563 115.011 -3.78629
-6.9441 151.15 25.2361
-13.2204 150.224 24.8479
-7.6014 143.806 25.2765
-13.9408 143.022 25.1846
-4.37203 203.961 21.3801
0.0900411 200.415 22.9755
-5.71059 197.404 21.0282
18.2666 141.672 16.8947
11.4622 140.058 19.8854
17.7963 134.023 14.6592
10.9518 132.461 17.9553
23.1235 205.463 25.1659
16.9502 202.537 25.1117
22.2384 197.213 24.4931
15.9454 194.601 24.6239
20.2074 172.983 22.3216
13.6294 171.008 23.5532
19.6823 165.052 21.3615
13.0336 163.206 23.0563
9.41986 110.296 9.08473
16.3731 111.671 5.45854
49.0972 141.24 -3.56119
49.3849 148.644 0.682695
41.0451 139.351 1.61821
41.362 146.878 5.2884
43.7204 211.076 27.6045
50.9083 203.08 26.833
43.3153 202.408 26.0413
-8.22638 136.434 24.8
-14.6227 135.765 24.9804
-8.83853 129.082 23.6283
-15.2831 128.503 24.0367
-1.224 193.589 22.6796
-7.09369 191.023 20.8207
-2.48213 186.799 22.6573
-8.41733 184.626 20.9406
50.3145 178.797 17.4214
42.4225 177.713 18.7821
50.115 171.102 13.4788
42.1762 169.838 15.7032
40.0431 116.933 -9.32795
-5.45691 165.687 24.2262
-11.5961 164.382 23.2345
-6.23568 158.45 24.8362
-12.4445 157.351 24.1432
-10.6158 107.57 15.6731
-17.1533 107.186 16.4277
-11.1572 100.573 11.7141
-17.7126 100.242 12.4787
