71.2959 493.994 12.401
73.6438 494.832 24.5897
71.5825 483.861 19.4684
74.0974 484.563 31.4355
69.4646 482.998 7.3328
71.7287 504.415 18.4349
71.8637 473.547 26.493
76.3236 495.471 36.7099
69.5085 472.835 14.3799
69.4445 492.972 0.1369
69.7398 503.534 5.9715
74.0701 505.164 30.7018
74.4917 474.123 38.3372
76.7584 484.984 43.0746
67.6636 471.955 2.2113
67.9191 481.909 -4.7997
69.9816 513.878 12.293
71.9573 514.707 24.6428
72.2302 463.217 33.5105
69.6728 462.677 21.3333
79.1329 495.695 48.7848
76.6485 505.593 43.0131
67.5351 461.925 9.0885
68.2037 491.636 -12.1773
68.2646 502.415 -6.5052
68.3486 513.012 -0.3489
74.1669 515.379 36.8442
77.1667 474.423 49.8804
74.9986 463.424 45.7951
79.4282 484.663 54.432
66.0154 460.961 -3.1614
66.4713 470.726 -9.8976
67.01 480.328 -16.9174
70.0523 524.367 18.3265
68.4291 523.51 5.9128
71.9154 525.189 30.5636
72.5094 452.872 40.3303
69.8535 452.531 28.191
67.4915 451.943 15.9748
79.2754 505.209 55.3687
81.9586 494.614 60.833
76.5054 515.605 49.1709
65.6583 451.149 3.693
67.5382 489.826 -24.5049
67.3175 500.979 -19.4127
67.1913 511.966 -13.015
67.1592 522.56 -6.5207
73.9326 525.75 42.7778
79.5577 475.083 59.4254
78.1471 463.426 59.1086
75.2089 452.515 52.4155
82.0023 483.14 65.7461
64.5182 449.833 -8.6277
65.1835 459.548 -15.4197
65.8754 469.261 -21.7704
66.5539 478.31 -29.0169
68.1271 534.165 11.6685
69.6558 535.024 23.9911
66.8533 533.238 -0.6793
71.3561 535.792 36.2888
68.6883 441.08 35.6078
71.1068 441.516 46.8085
66.4183 441.204 23.3596
64.4808 440.885 11.2481
78.7759 515.139 61.4133
81.893 504.372 68.2103
84.7019 493.143 72.9918
75.9437 525.71 54.9178
63.0617 440.163 -0.9026
67.2341 487.668 -36.7927
66.8229 498.882 -32.6839
66.3338 511.366 -28.1325
66.2616 521.636 -19.0296
65.8827 532.226 -13.044
73.1184 536.262 48.5866
81.3832 471.34 68.9313
77.7735 450.287 64.4445
73.2679 440.375 57.0818
84.6295 480.16 78.3581
62.1945 438.587 -13.1954
63.939 448.055 -20.9788
64.861 458.53 -27.5305
65.6684 468.15 -32.2078
66.2227 474.086 -42.4
63.0505 543.472 4.4731
64.15 544.271 16.9227
65.4373 545.04 29.28
62.2283 542.588 -7.9279
66.8817 545.671 41.6488
80.7731 459.564 72.335
67.3862 428.853 44.3915
65.0047 429.273 30.9435
70.2257 434.198 51.5746
63.1565 429.971 18.5349
61.6357 429.915 6.6346
77.8865 525.264 67.0519
80.9425 515.002 74.3264
84.5186 504.596 83.4558
87.3775 491.473 85.15
74.8715 535.94 60.8993
60.6619 429.614 -5.5134
67.1245 485.584 -49.4112
66.6757 496.013 -43.6205
66.0695 506.677 -43.0073
65.6676 521.97 -30.1322
65.217 530.943 -25.3633
61.6793 541.533 -20.3059
68.3371 545.815 54.1331
83.2769 468.063 78.8615
80.1706 447.618 76.5135
75.2531 435.857 69.5193
69.9592 427.276 57.9018
87.3658 481.911 89.2382
60.1535 428.927 -15.9286
61.1757 434.192 -26.2707
63.74 446.294 -33.7485
65.0793 460.697 -39.8627
66.5817 473.206 -57.1663
65.455 518.424 -40.9968
58.0111 553.04 -3.1918
58.6432 553.786 9.2284
59.4844 554.513 21.6384
60.4529 555.265 33.9604
57.6126 552.243 -15.55
61.5499 555.861 46.3538
83.6382 458.328 85.9006
85.8176 471.742 88.1017
63.4099 417.643 37.8532
61.6053 418.384 25.4272
60.1196 419.04 13.4133
59.0312 419.604 1.3132
76.5651 535.409 73.2188
79.365 525.409 77.6028
81.9771 518.714 86.2946
87.6914 500.437 97.3914
89.8724 489.35 96.6304
69.7665 545.545 66.712
58.4705 420.174 -10.7596
65.666 463.127 -53.1215
67.3132 482.542 -60.9965
66.2085 499.823 -54.2916
65.3002 513.794 -55.7685
64.7787 529.4 -37.6203
61.3435 540.263 -32.7383
57.4019 551.265 -27.9343
62.5501 555.999 58.7312
82.4107 444.776 88.4765
78.5432 435.729 82.4977
71.6242 422.928 69.1761
65.4632 416.83 50.628
85.0606 511.949 97.2438
88.7323 477.787 97.8563
58.406 421.483 -22.5384
61.5177 433.11 -40.6613
64.7606 452.921 -49.1737
66.6806 492.255 -64.2262
64.4744 527.469 -49.9639
53.3883 563.044 1.7489
53.1322 562.401 -10.6199
53.8188 563.698 14.1214
54.3978 564.385 26.4807
55.0797 565.091 38.829
53.0518 561.665 -22.986
55.7854 565.602 51.1853
87.2647 465.615 98.5558
85.7773 453.238 99.3249
74.5578 424.166 79.3049
67.7542 414.598 62.9064
59.5772 407.613 31.686
61.3416 407.321 43.8826
58.0746 408.158 19.4883
56.9289 409.217 7.2996
56.1855 410.146 -4.9389
71.4611 544.807 80.4069
78.1513 534.758 85.9754
82.4889 523.415 97.6577
91.2 488.23 107.332
87.1195 507.683 106.616
63.5386 556.005 71.3771
55.663 411.178 -17.2601
58.7316 422.04 -34.9958
63.7968 443.463 -45.402
68.1687 453.852 -60.2755
65.8635 502.794 -67.711
64.2323 525.324 -62.3855
61.1455 538.792 -45.1461
57.3513 550.074 -40.3014
53.1066 560.755 -35.3475
56.4401 565.809 63.5353
80.884 435.201 92.371
84.2789 441.434 99.8847
77.8782 425.567 90.8316
70.245 412.706 74.8302
63.3031 406.255 55.96
85.0347 517.887 108.077
89.7125 498.738 112.482
89.7144 473.975 110.679
55.7069 412.098 -29.1537
62.6677 422.306 -47.2511
67.2533 439.115 -55.8929
65.0361 513.209 -71.1368
60.9753 537.19 -57.5595
44.861 568.528 -5.2122
45.169 569.197 7.0913
44.6563 567.794 -17.4832
45.5641 569.845 19.451
46.0352 570.474 31.7267
46.5366 571.081 43.9857
44.536 566.858 -29.777
46.8976 571.436 56.2127
87.4241 458.825 110.274
84.9282 441.233 112.36
73.5481 411.683 88.7734
65.4277 403.608 67.7919
50.0311 402.693 25.3187
51.243 402.261 37.5622
52.5518 401.762 49.6944
48.9949 403.502 13.1424
48.1494 404.493 0.9561
47.0409 405.284 -11.4623
64.0078 556.732 84.124
68.8937 549.99 90.2732
79.76 534.389 98.2612
81.9608 532.662 110.969
92.5746 486.962 118.513
87.8157 509.882 116.842
56.7691 566.245 76.1378
43.9018 404.696 -26.6999
57.1618 406.878 -37.708
61.4846 412.246 -47.2449
66.5628 427.324 -56.5697
64.0303 523.304 -74.1932
60.7709 535.553 -69.7493
57.3457 548.738 -52.7178
53.2392 559.647 -47.6993
44.4817 565.73 -42.0987
46.454 572.129 67.6364
81.4855 430.017 100.979
78.4023 418.046 101.568
67.6594 400.742 79.6608
54.3628 399.529 61.5405
72.9635 544.904 98.6967
85.6111 521.723 119.39
65.8116 416.404 -57.9902
57.3696 547.087 -65.5146
36.0731 573.672 -12.3458
36.3583 574.414 -0.2073
36.6491 575.072 11.9776
35.8081 572.766 -24.4311
36.9401 575.668 24.1472
37.2266 576.224 36.3049
37.4577 576.701 48.4675
35.5539 571.635 -36.5704
37.4275 577.091 60.1846
80.9131 425.561 112.267
75.2756 405.889 102.317
56.4176 396.22 73.3066
69.9212 397.61 91.6996
41.1047 397.573 30.6432
40.4236 398.235 18.5925
41.8772 397.081 42.7824
42.9146 396.093 54.9172
39.842 399.329 6.5882
39.3188 400.294 -5.3036
38.3428 401.055 -15.9052
57.7866 566.201 88.8398
65.66 555.954 99.324
76.3662 540.841 106.8
42.6794 574.671 77.7708
48.7777 398.282 -41.2936
59.1811 401.275 -46.5195
60.9788 533.153 -78.5804
57.4616 544.377 -80.8816
53.4167 558.263 -60.076
44.4655 564.326 -54.5643
35.3255 570.259 -48.7285
36.7158 577.801 69.8618
77.3759 411.719 115.141
58.6705 392.024 86.4943
44.4775 392.682 66.4834
30.9703 397.847 -24.2657
48.8075 571.558 86.5858
70.9297 548.994 108.778
76.5084 541.789 116.531
39.0368 396.342 -35.3779
53.6217 556.481 -72.6779
26.7974 578.6 -19.2019
27.147 579.461 -7.123
27.6281 580.128 4.9434
27.9618 580.691 16.9456
26.4319 577.49 -31.2074
28.0747 581.205 29.0171
28.1934 581.67 41.1091
28.2192 582.014 53.147
26.0491 576.142 -43.1809
28.1571 582.346 65.1196
71.9037 394.426 103.32
72.5865 394.687 115.995
46.1108 388.486 78.0579
61.4124 386.713 102.82
31.335 393.171 23.9858
31.8024 392.636 36.0534
31.0258 394.154 11.9697
32.4712 392.068 48.1067
33.4266 389.938 59.8739
30.8492 395.245 0.0416
30.2934 396.585 -12.0625
48.4109 572.471 100.438
58.638 566.304 101.028
64.8977 557.914 111.009
28.4284 582.565 77.3605
38.8363 577.31 88.7956
41.5723 388.861 -49.5944
51.6389 392.438 -52.2367
53.9042 554.463 -84.4549
44.4667 562.442 -67.9878
35.0997 568.551 -61.1558
25.6713 574.517 -55.1348
47.0346 383.485 89.3648
54.3725 385.298 95.1227
34.6783 385.756 71.148
31.5169 391.449 -36.1434
70.6025 550.284 117.955
60.8943 395.798 -54.7624
44.6228 559.021 -85.9831
12.3299 581.987 -14.0208
12.1878 581.041 -26.2984
13.0845 582.701 -0.1046
19.2759 582.172 11.2036
17.1498 583.03 22.8304
12.0919 579.847 -38.378
18.232 583.336 36.2736
18.4794 583.676 48.5116
18.6629 583.96 60.5815
11.8386 578.414 -50.4113
18.6231 584.349 72.9644
65.34 388.769 112.524
36.1236 380.943 82.2278
50.0986 378.53 103.24
58.2359 566.84 113.701
37.5369 578.603 100.969
66.5218 556.492 125.1
28.2569 583.153 89.4604
31.6934 384.959 -47.7331
43.7776 385.614 -61.8401
34.8523 566.283 -74.6338
25.3142 572.563 -67.1003
12.0394 576.575 -62.3586
17.1105 585.207 87.8246
55.3099 381.282 116.192
37.731 375.718 93.3607
43.0576 575.532 112.121
24.5079 387.198 -37.8099
32.8991 381.186 -60.7025
34.2887 563.332 -89.0187
-1.02297 583.717 -20.7981
-0.934294 584.497 -8.5225
-1.03949 582.727 -32.9632
9.24429 583.96 12.1251
8.49691 584.794 32.4823
-1.02408 581.479 -45.0931
8.8367 585.099 44.5654
8.98734 585.392 56.7317
9.12298 585.729 68.6876
-1.01901 579.921 -57.1881
8.85101 586.173 79.3706
42.9799 372.357 115.504
48.7247 572.43 122.495
26.9842 584.144 101.026
27.6249 583.9 114.555
24.9282 570.208 -79.2117
12.382 574.207 -74.917
-0.805865 585.146 3.7074
7.04512 584.706 22.1661
-1.00373 578 -69.2735
0.184637 587.938 88.8793
39.3963 370.755 104.141
37.2926 578.682 121.67
12.8774 586.652 101.269
24.5844 567.631 -90.4831
-0.836256 585.653 15.7253
-0.894238 586.008 27.7331
-0.845946 586.316 39.8604
-0.850998 586.624 52.092
-0.800358 586.981 64.2906
-1.16271 587.392 76.6921
37.9336 369.184 114.637
18.8662 585.882 110.622
27.0472 584.074 128.519
11.8567 570.458 -91.8683
-1.01121 575.62 -81.5936
-8.76795 584.274 10.3895
-1.09243 588.662 100.508
18.1187 586.28 121.544
9.55556 587.864 115.808
-10.0009 584.448 20.7484
-10.4759 584.749 32.6278
-9.73811 585.91 69.5646
-10.8286 586.553 89.3326
-0.742957 589.339 111.327
-1.04645 573.052 -93.1174
9.545 588.385 128.066
-0.717076 590.07 122.408
