24.208 -83.4405 180.031
23.0323 -85.7974 185.52
15.6606 -83.4614 186.305
7.94608 -82.1516 186.501
8.57745 -76.164 180.212
9.43936 -74.5459 173.501
10.7113 -73.196 167.106
17.3324 -75.3733 166.929
24.1983 -78.4898 166.237
26.9743 -79.5774 167.017
11.0452 -73.7729 167.212
12.3397 -74.701 166.731
10.7282 -73.9047 168.399
12.0004 -74.8749 167.878
13.445 -75.3116 167.55
14.9494 -75.2891 167.737
13.73 -75.3702 168.744
15.0919 -75.2704 169.026
16.2672 -75.1878 167.17
15.8511 -75.5115 168.616
16.6911 -76.0127 168.071
17.2256 -75.3075 166.975
9.62442 -74.4649 174.854
9.75695 -74.57 175.68
10.417 -74.3194 169.271
11.6447 -75.1281 169.043
10.3373 -74.9474 170.279
11.6158 -75.7898 170.53
13.4462 -75.7992 169.906
14.7592 -75.5007 169.65
15.557 -75.6957 169.607
17.577 -76.3504 167.495
18.9116 -77.0088 167.284
16.3484 -76.3516 169.183
17.547 -77.0436 168.538
20.3702 -77.5108 167.282
18.8376 -77.474 168.491
19.924 -77.6147 168.214
22.8574 -78.0878 166.4
9.42052 -74.8484 176.63
10.4297 -75.0873 176.212
10.345 -75.3826 172.167
10.3251 -75.1352 174.005
10.3327 -74.8517 175.099
10.1075 -75.5511 177.457
9.67965 -76.0593 178.489
11.5246 -76.0044 172.113
11.1072 -75.8148 173.636
12.6169 -76.1096 171.11
13.7115 -76.2587 170.905
14.842 -76.2414 170.399
15.9812 -76.7375 170.06
18.2714 -77.7061 169.376
17.0515 -77.3568 169.663
19.496 -77.8682 169.213
16.7087 -77.7701 170.736
15.5343 -77.3719 171.102
17.905 -78.0673 170.481
21.4028 -77.7187 166.804
21.1071 -77.8874 167.961
22.2867 -78.1898 167.639
20.7864 -78.1075 169.038
24.5054 -79.1291 168.457
11.1294 -75.5562 176.268
11.0479 -75.5206 175.183
11.0332 -75.8494 177.154
8.92137 -76.5977 180.481
9.44526 -76.49 179.517
10.5595 -76.665 179.279
10.8397 -76.3244 178.274
11.7399 -76.5973 177.755
11.9922 -76.2703 173.456
11.7917 -76.3438 174.986
13.2663 -76.4249 171.947
12.9048 -76.631 173.133
12.3673 -76.1767 172.265
14.3774 -76.9172 171.604
19.2247 -78.2777 170.325
17.4727 -78.6 172.095
18.8697 -78.7516 171.673
20.6084 -78.5196 170.219
15.1778 -77.8752 172.227
16.2975 -78.1577 171.778
16.1922 -78.5128 172.684
18.8897 -79.681 174.037
13.933 -77.2252 172.718
22.1228 -78.4143 168.726
22.3043 -78.8872 170.005
22.1635 -79.4915 171.673
24.3399 -79.9019 171.247
11.6159 -76.1937 176.39
10.1786 -77.12 180.333
9.63928 -77.4332 181.393
11.8139 -76.8036 179.024
11.4536 -77.2167 180.08
12.4666 -76.9832 178.161
12.4351 -77.1469 176.519
12.6827 -77.1246 178.992
12.5744 -77.0167 174.506
13.5116 -77.5978 173.802
20.3201 -79.1204 171.822
21.4157 -80.286 174.049
14.9 -78.2283 173.23
16.4883 -79.0709 173.933
15.4805 -79.3124 175.159
16.4428 -79.5054 175.062
17.4933 -79.7697 175.121
18.3136 -80.0523 175.351
18.7191 -80.3103 175.744
19.799 -80.7035 176.056
21.3918 -81.1235 176.122
23.9026 -80.5669 173.247
25.7032 -80.6773 172.402
8.72077 -78.1404 182.866
9.39832 -77.7852 182.141
10.5085 -78.0133 181.983
10.9405 -77.7057 181.125
12.0238 -77.7826 180.892
12.4219 -77.3301 179.873
12.7694 -78.0881 180.441
13.0106 -77.5822 178.032
13.1261 -77.9088 175.271
13.0154 -77.7932 179.326
14.3835 -78.6472 174.662
23.1409 -81.2295 175.328
24.855 -81.3771 174.663
13.6614 -78.6186 176.267
14.7948 -79.4208 176.192
16.3429 -79.884 176.074
17.8337 -80.2523 176.131
18.7461 -80.5951 176.446
19.1246 -81.0364 177.299
18.1849 -80.6377 176.882
19.2105 -81.6577 178.674
18.0034 -81.0028 177.807
20.4231 -81.9678 178.802
20.4889 -81.5107 177.64
25.4964 -81.0614 173.497
24.703 -81.8333 175.895
8.93793 -79.2506 183.971
10.2454 -78.4568 182.586
10.0282 -79.0978 183.504
11.6569 -78.227 181.844
11.2463 -78.5481 182.388
12.4808 -78.4553 181.471
13.2293 -79.0741 179.679
12.9462 -78.9745 180.798
13.467 -78.4946 177.644
13.0663 -77.9122 176.691
13.3243 -78.4146 178.658
13.9517 -79.6949 178.589
22.8852 -82.2726 178.094
22.1104 -81.7195 177.169
21.5184 -82.0676 178.412
23.9388 -82.5127 178.105
23.792 -81.9942 176.85
14.4103 -79.5441 177.431
15.8533 -80.2443 177.295
17.1569 -80.4942 177.071
17.6178 -81.5275 179.01
16.7789 -80.8889 178.064
16.1946 -81.769 179.902
17.4846 -82.0392 180.03
18.6185 -82.091 179.774
19.8335 -82.222 179.606
21.0217 -82.384 179.443
22.3475 -82.5789 179.184
9.08124 -79.7099 184.777
9.95365 -79.8435 184.544
11.07 -79.3586 182.867
10.5257 -79.9103 183.932
11.9918 -79.0031 182.195
12.6322 -79.5057 181.545
13.3453 -80.3576 180.6
13.764 -80.4175 179.604
14.9248 -80.9981 179.224
11.8854 -80.2334 182.223
12.7956 -81.0191 181.556
15.3957 -80.5789 178.255
16.236 -81.2269 178.886
23.6608 -82.8064 179.015
21.9863 -83.0035 180.231
23.3165 -83.1915 180.003
15.4422 -82.2753 180.98
16.7024 -82.4047 180.908
18.0264 -82.5267 180.748
19.2303 -82.5482 180.414
20.5488 -82.8481 180.497
19.245 -83.2168 181.495
20.5734 -83.3737 181.327
8.69339 -80.0861 185.256
8.70874 -80.9077 185.732
9.55211 -80.2533 185.188
10.2054 -80.772 185.097
10.7461 -81.0993 184.565
11.1412 -80.7964 183.287
14.61 -81.474 180.231
14.0699 -81.8889 181.15
12.0109 -81.557 182.416
13.2841 -82.4378 182.42
14.7742 -82.6778 181.944
21.5309 -83.4951 181.174
22.7601 -83.6567 180.968
23.9452 -83.8372 180.791
16.1268 -82.975 182.215
17.5541 -83.0708 181.83
18.3028 -83.6687 182.66
17.1337 -83.5219 183.056
19.4313 -83.9348 182.648
20.7025 -83.9841 182.187
22.2029 -84.2094 181.923
9.13685 -81.9925 186.253
9.82868 -81.2701 185.629
10.2514 -82.3575 186.337
10.7475 -81.8688 185.557
11.659 -82.3671 185.187
12.0304 -82.2832 183.767
13.2655 -82.9312 183.753
14.7235 -83.1405 183.735
16.1852 -83.431 183.718
13.1443 -82.9257 185.086
23.4661 -84.3765 181.713
21.7601 -84.848 183.211
22.9782 -84.9556 182.679
19.0608 -84.1968 183.981
16.8627 -83.664 184.399
17.7823 -83.8619 183.777
18.0004 -83.9833 185.166
19.1894 -84.3083 185.269
15.8511 -83.4252 184.996
20.4468 -84.5815 183.717
11.7531 -82.7167 186.25
14.6915 -83.1949 185.549
20.2858 -84.675 185.338
21.4896 -85.1309 184.798
22.5727 -85.4399 184.03
16.7162 -83.6258 185.625
15.6939 -83.3947 186.108
22.365 -85.5349 185.543
22.568 -81.4572 176.236
