528.395 -8.22022 -18.2052
528.231 -8.01592 -17.7008
528.068 -7.81162 -17.1963
527.904 -7.60733 -16.6918
527.741 -7.40303 -16.1873
527.577 -7.19873 -15.6828
527.414 -6.99443 -15.1783
528.697 -8.63042 -19.2222
528.132 -8.02235 -17.7327
527.943 -7.81966 -17.2362
527.755 -7.61697 -16.7397
527.566 -7.41428 -16.2432
527.378 -7.21159 -15.7467
527.19 -7.0089 -15.2502
528.459 -8.43095 -18.7417
528.245 -8.22986 -18.2532
528.032 -8.02878 -17.7646
527.819 -7.8277 -17.2761
527.605 -7.62662 -16.7876
527.392 -7.42553 -16.2991
527.179 -7.22445 -15.8106
526.965 -7.02337 -15.3221
528.17 -8.23469 -18.2771
527.932 -8.03521 -17.7966
527.694 -7.83574 -17.3161
527.456 -7.63626 -16.8355
527.217 -7.43679 -16.355
526.979 -7.23731 -15.8745
526.741 -7.03784 -15.3939
528.359 -8.43738 -18.7736
528.096 -8.23951 -18.3011
527.832 -8.04164 -17.8285
527.569 -7.84378 -17.356
527.306 -7.64591 -16.8834
527.043 -7.44804 -16.4109
526.78 -7.25017 -15.9383
526.516 -7.05231 -15.4658
528.597 -8.63685 -19.2542
527.733 -8.04807 -17.8605
527.445 -7.85181 -17.3959
527.156 -7.65555 -16.9313
526.868 -7.45929 -16.4668
526.58 -7.26304 -16.0022
526.292 -7.06678 -15.5377
528.259 -8.44381 -18.8056
527.946 -8.24916 -18.349
527.633 -8.0545 -17.8924
527.32 -7.85985 -17.4358
527.007 -7.6652 -16.9793
526.694 -7.47055 -16.5227
526.381 -7.2759 -16.0661
526.068 -7.08124 -15.6095
527.871 -8.25398 -18.3729
527.533 -8.06093 -17.9244
527.195 -7.86789 -17.4758
526.857 -7.67485 -17.0272
526.519 -7.4818 -16.5786
526.181 -7.28876 -16.13
525.843 -7.09571 -15.6814
528.548 -8.66388 -19.3302
528.212 -8.49465 -18.9417
527.875 -8.32542 -18.5532
527.538 -8.15619 -18.1647
527.201 -7.98696 -17.7762
526.864 -7.81773 -17.3876
526.527 -7.64851 -16.9991
526.19 -7.47928 -16.6106
525.854 -7.31005 -16.2221
528.214 -8.54228 -19.0618
527.878 -8.39687 -18.7334
527.542 -8.25145 -18.405
527.207 -8.10604 -18.0765
526.871 -7.96062 -17.7481
526.535 -7.81521 -17.4197
526.2 -7.66979 -17.0912
525.864 -7.52438 -16.7628
528.551 -8.71151 -19.4504
528.216 -8.58991 -19.182
527.882 -8.46831 -18.9136
527.547 -8.34671 -18.6453
527.212 -8.22511 -18.3769
526.878 -8.10351 -18.1086
526.543 -7.98191 -17.8402
526.209 -7.86031 -17.5719
525.874 -7.73871 -17.3035
528.552 -8.73533 -19.5104
528.218 -8.63754 -19.3022
527.885 -8.53976 -19.0939
527.552 -8.44197 -18.8856
527.218 -8.34419 -18.6773
526.885 -8.2464 -18.4691
526.551 -8.14862 -18.2608
526.218 -8.05083 -18.0525
525.884 -7.95305 -17.8442
528.221 -8.68517 -19.4223
527.888 -8.6112 -19.2741
527.556 -8.53723 -19.1259
527.224 -8.46326 -18.9777
526.892 -8.38929 -18.8295
526.559 -8.31532 -18.6813
526.227 -8.24135 -18.5331
525.895 -8.16738 -18.3849
528.554 -8.78296 -19.6306
528.223 -8.7328 -19.5425
527.892 -8.68265 -19.4543
527.561 -8.63249 -19.3662
527.23 -8.58233 -19.2781
526.898 -8.53218 -19.19
526.567 -8.48202 -19.1019
526.236 -8.43187 -19.0137
525.905 -8.38171 -18.9256
528.555 -8.80677 -19.6907
528.225 -8.78043 -19.6626
527.895 -8.75409 -19.6346
527.565 -8.72775 -19.6065
527.235 -8.70141 -19.5785
526.905 -8.67507 -19.5505
526.575 -8.64873 -19.5224
526.245 -8.62239 -19.4944
525.915 -8.59605 -19.4663
528.556 -8.83059 -19.7507
528.228 -8.82806 -19.7828
527.899 -8.82553 -19.8148
527.57 -8.82301 -19.8469
527.241 -8.82048 -19.8789
526.912 -8.81796 -19.9109
526.583 -8.81543 -19.943
526.254 -8.81291 -19.975
525.925 -8.81038 -20.007
528.558 -8.8544 -19.8108
528.23 -8.87569 -19.9029
527.902 -8.89698 -19.9951
527.574 -8.91827 -20.0872
527.247 -8.93956 -20.1793
526.919 -8.96085 -20.2714
526.591 -8.98214 -20.3635
526.263 -9.00342 -20.4556
525.936 -9.02471 -20.5477
528.232 -8.92332 -20.0231
527.906 -8.96842 -20.1753
527.579 -9.01353 -20.3275
527.252 -9.05863 -20.4797
526.926 -9.10374 -20.6319
526.599 -9.14884 -20.784
526.273 -9.19394 -20.9362
525.946 -9.23905 -21.0884
529.317 -8.7365 -19.417
529.748 -8.63988 -19.1153
530.18 -8.54326 -18.8136
530.612 -8.44665 -18.5119
531.043 -8.35003 -18.2103
531.475 -8.25342 -17.9086
531.906 -8.1568 -17.6069
532.338 -8.06019 -17.3052
532.77 -7.96357 -17.0035
533.201 -7.86695 -16.7018
529.265 -8.72524 -19.3943
529.644 -8.61738 -19.07
530.024 -8.50951 -18.7456
530.404 -8.40165 -18.4212
530.783 -8.29378 -18.0969
531.163 -8.18591 -17.7725
531.542 -8.07805 -17.4481
531.922 -7.97018 -17.1238
532.301 -7.86232 -16.7994
532.681 -7.75445 -16.475
529.54 -8.59488 -19.0246
529.868 -8.47576 -18.6776
530.195 -8.35664 -18.3305
530.523 -8.23753 -17.9835
530.851 -8.11841 -17.6365
531.178 -7.99929 -17.2894
531.506 -7.88018 -16.9424
531.833 -7.76106 -16.5953
532.161 -7.64194 -16.2483
529.161 -8.70274 -19.349
529.436 -8.57238 -18.9793
529.712 -8.44201 -18.6096
529.987 -8.31164 -18.2398
530.263 -8.18128 -17.8701
530.538 -8.05091 -17.5004
530.814 -7.92054 -17.1307
531.089 -7.79017 -16.761
531.365 -7.65981 -16.3913
531.64 -7.52944 -16.0215
529.109 -8.69149 -19.3263
529.332 -8.54988 -18.9339
529.556 -8.40826 -18.5415
529.779 -8.26664 -18.1491
530.003 -8.12502 -17.7567
530.226 -7.98341 -17.3644
530.45 -7.84179 -16.972
530.673 -7.70017 -16.5796
530.897 -7.55855 -16.1872
531.12 -7.41693 -15.7948
529.057 -8.68024 -19.3036
529.228 -8.52737 -18.8886
529.4 -8.37451 -18.4735
529.571 -8.22164 -18.0584
529.743 -8.06877 -17.6434
529.914 -7.9159 -17.2283
530.085 -7.76303 -16.8132
530.257 -7.61017 -16.3982
530.428 -7.4573 -15.9831
530.6 -7.30443 -15.568
529.005 -8.66899 -19.281
529.124 -8.50487 -18.8432
529.244 -8.34076 -18.4055
529.363 -8.17664 -17.9677
529.482 -8.01252 -17.53
529.602 -7.8484 -17.0922
529.721 -7.68428 -16.6545
529.841 -7.52016 -16.2168
529.96 -7.35604 -15.779
530.08 -7.19193 -15.3413
528.953 -8.65774 -19.2583
529.02 -8.48237 -18.7979
529.087 -8.307 -18.3375
529.155 -8.13163 -17.877
529.222 -7.95627 -17.4166
529.29 -7.7809 -16.9562
529.357 -7.60553 -16.4958
529.424 -7.43016 -16.0354
529.492 -7.25479 -15.5749
529.559 -7.07942 -15.1145
528.916 -8.45987 -18.7525
528.931 -8.27325 -18.2694
528.947 -8.08663 -17.7863
528.962 -7.90001 -17.3032
528.978 -7.71339 -16.8201
528.993 -7.52677 -16.337
529.008 -7.34015 -15.8539
529.024 -7.15354 -15.3709
529.039 -6.96692 -14.8878
528.849 -8.63524 -19.2129
528.812 -8.43737 -18.7072
528.775 -8.2395 -18.2014
528.739 -8.04163 -17.6956
528.702 -7.84376 -17.1899
528.665 -7.64589 -16.6841
528.629 -7.44802 -16.1783
528.592 -7.25015 -15.6725
528.555 -7.05228 -15.1668
528.519 -6.85441 -14.661
527.624 -9.01632 -20.3271
527.308 -9.06212 -20.4792
526.678 -9.15372 -20.7834
526.362 -9.19953 -20.9355
526.047 -9.24533 -21.0875
527.06 -9.11211 -20.6307
526.756 -9.15861 -20.7827
526.452 -9.20511 -20.9347
526.147 -9.25161 -21.0867
528.006 -8.9747 -20.1744
527.713 -9.0219 -20.3263
527.42 -9.0691 -20.4782
527.127 -9.1163 -20.6301
526.834 -9.16349 -20.782
526.541 -9.21069 -20.9339
526.248 -9.25789 -21.0858
528.603 -8.88101 -19.8705
528.322 -8.9289 -20.0223
526.912 -9.16838 -20.7813
526.631 -9.21628 -20.9331
526.349 -9.26417 -21.0849
527.803 -9.02748 -20.3255
527.532 -9.07608 -20.4772
527.261 -9.12467 -20.6289
526.72 -9.22186 -20.9323
526.45 -9.27045 -21.084
528.107 -8.98099 -20.1735
527.329 -9.12886 -20.6283
527.069 -9.17815 -20.7799
526.81 -9.22744 -20.9315
526.55 -9.27673 -21.0831
527.147 -9.18304 -20.7792
526.651 -9.28301 -21.0822
528.411 -8.93449 -20.0215
527.937 -9.03586 -20.3243
527.7 -9.08655 -20.4757
527.463 -9.13723 -20.6271
527.226 -9.18792 -20.7785
526.989 -9.23861 -20.9299
526.752 -9.28929 -21.0813
528.208 -8.98727 -20.1726
527.53 -9.14142 -20.6265
527.304 -9.19281 -20.7778
527.078 -9.24419 -20.9292
526.852 -9.29558 -21.0805
528.027 -9.04144 -20.3235
527.812 -9.09353 -20.4747
527.168 -9.24977 -20.9284
526.953 -9.30186 -21.0796
528.709 -8.89096 -19.8765
528.532 -8.94881 -20.0342
528.356 -9.00666 -20.1919
528.179 -9.06451 -20.3497
528.002 -9.12235 -20.5074
527.826 -9.1802 -20.6651
527.649 -9.23805 -20.8229
527.473 -9.2959 -20.9806
527.296 -9.35375 -21.1384
528.608 -8.96034 -20.0473
528.47 -9.02395 -20.2115
528.331 -9.08757 -20.3758
528.193 -9.15118 -20.5401
528.054 -9.2148 -20.7043
527.916 -9.27841 -20.8686
527.777 -9.34203 -21.0329
527.639 -9.40564 -21.1971
528.785 -8.90249 -19.8895
528.584 -9.04125 -20.2311
528.484 -9.11063 -20.4019
528.383 -9.18001 -20.5727
528.283 -9.24939 -20.7435
528.182 -9.31877 -20.9143
528.082 -9.38815 -21.0851
527.982 -9.45753 -21.2559
528.823 -8.90826 -19.896
528.761 -8.9834 -20.0734
528.698 -9.05855 -20.2507
528.636 -9.1337 -20.428
528.574 -9.20884 -20.6054
528.511 -9.28399 -20.7827
528.449 -9.35913 -20.96
528.387 -9.43428 -21.1374
528.324 -9.50943 -21.3147
528.861 -8.91402 -19.9026
528.837 -8.99494 -20.0864
528.813 -9.07585 -20.2703
528.788 -9.15676 -20.4542
528.764 -9.23767 -20.638
528.74 -9.31858 -20.8219
528.716 -9.3995 -21.0058
528.691 -9.48041 -21.1896
528.667 -9.56132 -21.3735
528.913 -9.00647 -20.0995
528.927 -9.09314 -20.2899
528.941 -9.17982 -20.4803
528.955 -9.2665 -20.6707
528.968 -9.35318 -20.8611
528.982 -9.43986 -21.0515
528.996 -9.52653 -21.2419
529.01 -9.61321 -21.4323
528.937 -8.92555 -19.9156
528.989 -9.018 -20.1126
529.041 -9.11044 -20.3095
529.093 -9.20289 -20.5064
529.145 -9.29533 -20.7033
529.197 -9.38777 -20.9003
529.249 -9.48022 -21.0972
529.301 -9.57266 -21.2941
529.353 -9.6651 -21.491
529.065 -9.02953 -20.1256
529.155 -9.12774 -20.3291
529.245 -9.22595 -20.5325
529.335 -9.32416 -20.736
529.426 -9.42237 -20.9395
529.516 -9.52058 -21.1429
529.606 -9.61879 -21.3464
529.696 -9.717 -21.5498
529.013 -8.93709 -19.9287
529.142 -9.04106 -20.1387
529.27 -9.14504 -20.3487
529.398 -9.24901 -20.5587
529.526 -9.35299 -20.7687
529.654 -9.45696 -20.9786
529.782 -9.56094 -21.1886
529.91 -9.66491 -21.3986
530.038 -9.76889 -21.6086
529.218 -9.05259 -20.1518
529.384 -9.16233 -20.3683
529.55 -9.27208 -20.5848
529.716 -9.38182 -20.8013
529.883 -9.49156 -21.0178
530.049 -9.6013 -21.2343
530.215 -9.71104 -21.4509
530.381 -9.82078 -21.6674
533.141 -9.65522 -20.8696
533.134 -9.85823 -21.2758
533.127 -10.0612 -21.682
533.119 -10.2643 -22.0882
533.112 -10.4673 -22.4944
533.105 -10.6703 -22.9006
533.098 -10.8733 -23.3068
533.091 -11.0763 -23.713
533.084 -11.2793 -24.1191
533.076 -11.4823 -24.5253
533.246 -10.0877 -21.7076
533.299 -10.3039 -22.1266
533.352 -10.5201 -22.5456
533.404 -10.7364 -22.9646
533.457 -10.9526 -23.3836
533.51 -11.1688 -23.8026
533.562 -11.385 -24.2216
533.615 -11.6013 -24.6406
533.253 -9.88467 -21.3014
533.366 -10.1141 -21.7332
533.479 -10.3436 -22.165
533.591 -10.573 -22.5968
533.704 -10.8024 -23.0286
533.816 -11.0319 -23.4604
533.929 -11.2613 -23.8922
534.041 -11.4908 -24.324
534.154 -11.7202 -24.7558
533.313 -9.89788 -21.3142
533.486 -10.1405 -21.7588
533.658 -10.3832 -22.2034
533.83 -10.6259 -22.648
534.003 -10.8685 -23.0926
534.175 -11.1112 -23.5372
534.348 -11.3538 -23.9818
534.52 -11.5965 -24.4264
534.692 -11.8392 -24.871
533.373 -9.9111 -21.327
533.605 -10.167 -21.7844
533.838 -10.4229 -22.2418
534.07 -10.6787 -22.6992
534.302 -10.9346 -23.1566
534.534 -11.1905 -23.614
534.767 -11.4464 -24.0714
534.999 -11.7022 -24.5288
535.231 -11.9581 -24.9863
533.433 -9.92432 -21.3398
533.725 -10.1934 -21.81
534.017 -10.4625 -22.2802
534.309 -10.7316 -22.7504
534.601 -11.0007 -23.2206
534.893 -11.2698 -23.6909
535.185 -11.5389 -24.1611
535.478 -11.808 -24.6313
535.77 -12.0771 -25.1015
533.845 -10.2198 -21.8356
534.197 -10.5022 -22.3186
534.549 -10.7845 -22.8016
534.901 -11.0668 -23.2847
535.252 -11.3491 -23.7677
535.604 -11.6314 -24.2507
535.956 -11.9137 -24.7337
536.308 -12.196 -25.2167
533.553 -9.95075 -21.3654
533.964 -10.2463 -21.8612
534.376 -10.5418 -22.357
534.788 -10.8373 -22.8529
535.2 -11.1329 -23.3487
535.612 -11.4284 -23.8445
536.023 -11.7239 -24.3403
536.435 -12.0194 -24.8361
536.847 -12.315 -25.3319
533.613 -9.96397 -21.3782
534.084 -10.2727 -21.8868
534.556 -10.5815 -22.3955
535.027 -10.8902 -22.9041
535.499 -11.1989 -23.4127
535.971 -11.5077 -23.9213
536.442 -11.8164 -24.4299
536.914 -12.1252 -24.9386
537.385 -12.4339 -25.4472
534.204 -10.2991 -21.9124
534.735 -10.6211 -22.4339
535.267 -10.9431 -22.9553
535.798 -11.265 -23.4767
536.33 -11.587 -23.9981
536.861 -11.9089 -24.5196
537.393 -12.2309 -25.041
537.924 -12.5529 -25.5624
533.732 -9.9904 -21.4038
534.324 -10.3256 -21.938
534.915 -10.6608 -22.4723
535.506 -10.9959 -23.0065
536.097 -11.3311 -23.5407
536.689 -11.6663 -24.075
537.28 -12.0015 -24.6092
537.871 -12.3366 -25.1434
538.463 -12.6718 -25.6776
533.766 -9.41433 -20.1895
534.391 -9.17343 -19.5094
535.016 -8.93254 -18.8294
535.641 -8.69164 -18.1493
536.266 -8.45075 -17.4692
536.892 -8.20985 -16.7891
537.517 -7.96896 -16.1091
538.142 -7.72806 -15.429
538.767 -7.48717 -14.7489
533.704 -9.42054 -20.2159
534.267 -9.18585 -19.5621
534.831 -8.95116 -18.9084
535.394 -8.71647 -18.2546
535.957 -8.48178 -17.6009
536.52 -8.24709 -16.9471
537.083 -8.01241 -16.2934
537.647 -7.77772 -15.6396
538.21 -7.54303 -14.9859
538.773 -7.30834 -14.3321
533.642 -9.42674 -20.2422
534.143 -9.19826 -19.6148
534.645 -8.96978 -18.9873
535.146 -8.7413 -18.3599
535.647 -8.51282 -17.7325
536.149 -8.28433 -17.1051
536.65 -8.05585 -16.4777
537.151 -7.82737 -15.8503
537.653 -7.59889 -15.2228
538.154 -7.37041 -14.5954
533.58 -9.43295 -20.2685
534.02 -9.21067 -19.6674
534.459 -8.9884 -19.0663
534.898 -8.76613 -18.4652
535.338 -8.54385 -17.8642
535.777 -8.32158 -17.2631
536.217 -8.0993 -16.662
536.656 -7.87703 -16.0609
537.095 -7.65475 -15.4598
537.535 -7.43248 -14.8587
533.896 -9.22309 -19.7201
534.273 -9.00702 -19.1453
534.651 -8.79095 -18.5706
535.028 -8.57488 -17.9958
535.406 -8.35882 -17.4211
535.783 -8.14275 -16.8463
536.161 -7.92668 -16.2715
536.538 -7.71061 -15.6968
536.916 -7.49454 -15.122
533.456 -9.44536 -20.3212
533.772 -9.2355 -19.7727
534.088 -9.02564 -19.2243
534.403 -8.81578 -18.6759
534.719 -8.60592 -18.1275
535.034 -8.39606 -17.579
535.35 -8.1862 -17.0306
535.665 -7.97634 -16.4822
535.981 -7.76647 -15.9337
536.297 -7.55661 -15.3853
533.395 -9.45157 -20.3475
533.648 -9.24792 -19.8254
533.902 -9.04426 -19.3033
534.156 -8.84061 -18.7812
534.409 -8.63695 -18.2591
534.663 -8.4333 -17.737
534.917 -8.22964 -17.2149
535.17 -8.02599 -16.6928
535.424 -7.82234 -16.1707
535.678 -7.61868 -15.6486
533.524 -9.26033 -19.8781
533.716 -9.06288 -19.3823
533.908 -8.86543 -18.8865
534.1 -8.66799 -18.3908
534.291 -8.47054 -17.895
534.483 -8.27309 -17.3992
534.675 -8.07564 -16.9034
534.867 -7.8782 -16.4077
535.058 -7.68075 -15.9119
533.271 -9.46398 -20.4002
533.401 -9.27274 -19.9307
533.53 -9.0815 -19.4613
533.66 -8.89026 -18.9918
533.79 -8.69902 -18.5224
533.92 -8.50778 -18.053
534.05 -8.31654 -17.5835
534.18 -8.1253 -17.1141
534.31 -7.93406 -16.6446
534.439 -7.74282 -16.1752
533.277 -9.28516 -19.9834
533.345 -9.10012 -19.5403
533.413 -8.91509 -19.0972
533.481 -8.73006 -18.654
533.549 -8.54502 -18.2109
533.617 -8.35999 -17.7678
533.684 -8.17495 -17.3247
533.752 -7.98992 -16.8816
533.82 -7.80489 -16.4385
533.147 -9.4764 -20.4528
533.153 -9.29757 -20.036
533.159 -9.11874 -19.6193
533.165 -8.93992 -19.2025
533.171 -8.76109 -18.7857
533.177 -8.58226 -18.3689
533.183 -8.40344 -17.9521
533.189 -8.22461 -17.5354
533.195 -8.04578 -17.1186
534.169 -9.74266 -20.8711
535.196 -9.8301 -20.8726
536.224 -9.91753 -20.8741
537.252 -10.005 -20.8756
538.28 -10.0924 -20.8771
539.307 -10.1798 -20.8786
540.335 -10.2673 -20.8801
541.363 -10.3547 -20.8816
542.391 -10.4422 -20.8831
535.116 -9.76443 -20.7363
536.103 -9.81903 -20.6696
537.091 -9.87364 -20.6029
538.078 -9.92824 -20.5363
539.066 -9.98285 -20.4696
540.053 -10.0374 -20.403
541.041 -10.0921 -20.3363
542.028 -10.1467 -20.2696
534.088 -9.67699 -20.7348
535.035 -9.69876 -20.6
535.983 -9.72054 -20.4651
536.93 -9.74231 -20.3303
537.877 -9.76408 -20.1955
538.824 -9.78585 -20.0607
539.771 -9.80762 -19.9259
540.719 -9.82939 -19.791
541.666 -9.85116 -19.6562
534.048 -9.64416 -20.6666
534.955 -9.6331 -20.4636
535.862 -9.62204 -20.2607
536.769 -9.61097 -20.0577
537.676 -9.59991 -19.8547
538.583 -9.58885 -19.6517
539.49 -9.57778 -19.4488
540.397 -9.56672 -19.2458
541.304 -9.55566 -19.0428
534.008 -9.61133 -20.5985
534.874 -9.56743 -20.3273
535.741 -9.52354 -20.0562
536.608 -9.47964 -19.7851
537.474 -9.43574 -19.5139
538.341 -9.39185 -19.2428
539.208 -9.34795 -18.9717
540.074 -9.30406 -18.7005
540.941 -9.26016 -18.4294
533.967 -9.57849 -20.5303
534.794 -9.50177 -20.191
535.62 -9.42504 -19.8517
536.447 -9.34831 -19.5124
537.273 -9.27158 -19.1731
538.1 -9.19485 -18.8339
538.926 -9.11812 -18.4946
539.752 -9.04139 -18.1553
540.579 -8.96466 -17.816
533.927 -9.54566 -20.4621
534.713 -9.4361 -20.0547
535.499 -9.32654 -19.6473
536.286 -9.21697 -19.2398
537.072 -9.10741 -18.8324
537.858 -8.99785 -18.4249
538.644 -8.88829 -18.0175
539.43 -8.77872 -17.61
540.216 -8.66916 -17.2026
533.887 -9.51283 -20.394
534.633 -9.37043 -19.9184
535.379 -9.22804 -19.4428
536.125 -9.08564 -18.9672
536.87 -8.94325 -18.4916
537.616 -8.80085 -18.016
538.362 -8.65845 -17.5404
539.108 -8.51606 -17.0648
539.854 -8.37366 -16.5892
533.847 -9.48 -20.3258
534.552 -9.30477 -19.7821
535.258 -9.12954 -19.2383
535.963 -8.95431 -18.6946
536.669 -8.77908 -18.1508
537.375 -8.60385 -17.607
538.08 -8.42862 -17.0633
538.786 -8.25339 -16.5195
539.492 -8.07816 -15.9757
533.806 -9.44716 -20.2577
534.472 -9.2391 -19.6458
535.137 -9.03104 -19.0338
535.802 -8.82298 -18.4219
536.468 -8.61491 -17.81
537.133 -8.40685 -17.1981
537.799 -8.19879 -16.5862
538.464 -7.99073 -15.9742
539.129 -7.78267 -15.3623
533.776 -9.96563 -21.3505
534.411 -10.276 -21.8315
535.046 -10.5864 -22.3125
535.681 -10.8968 -22.7934
536.316 -11.2072 -23.2744
536.951 -11.5176 -23.7553
537.586 -11.828 -24.2363
538.221 -12.1384 -24.7172
538.856 -12.4488 -25.1982
533.82 -9.94085 -21.2973
534.498 -10.2265 -21.725
535.177 -10.5121 -22.1526
535.855 -10.7977 -22.5803
536.534 -11.0834 -23.008
537.213 -11.369 -23.4357
537.891 -11.6546 -23.8634
538.57 -11.9403 -24.291
539.248 -12.2259 -24.7187
534.585 -10.1769 -21.6184
535.308 -10.4378 -21.9928
536.03 -10.6986 -22.3672
536.752 -10.9595 -22.7416
537.474 -11.2204 -23.116
538.197 -11.4812 -23.4904
538.919 -11.7421 -23.8649
539.641 -12.0029 -24.2393
533.907 -9.8913 -21.1907
534.673 -10.1274 -21.5119
535.439 -10.3635 -21.833
536.204 -10.5995 -22.1541
536.97 -10.8356 -22.4753
537.736 -11.0717 -22.7964
538.502 -11.3078 -23.1175
539.268 -11.5439 -23.4387
540.034 -11.7799 -23.7598
534.76 -10.0778 -21.4053
535.57 -10.2891 -21.6732
536.379 -10.5005 -21.941
537.189 -10.7118 -22.2089
537.998 -10.9231 -22.4768
538.808 -11.1344 -22.7446
539.617 -11.3457 -23.0125
540.427 -11.557 -23.2803
533.994 -9.84176 -21.0842
534.847 -10.0283 -21.2988
535.7 -10.2148 -21.5134
536.554 -10.4014 -21.7279
537.407 -10.5879 -21.9425
538.26 -10.7744 -22.1571
539.113 -10.961 -22.3717
539.966 -11.1475 -22.5863
540.82 -11.334 -22.8009
534.038 -9.81698 -21.0309
534.935 -9.97874 -21.1922
535.831 -10.1405 -21.3535
536.728 -10.3023 -21.5149
537.625 -10.464 -21.6762
538.522 -10.6258 -21.8375
539.419 -10.7875 -21.9988
540.315 -10.9493 -22.1601
541.212 -11.1111 -22.3214
534.081 -9.79221 -20.9776
535.022 -9.92919 -21.0857
535.962 -10.0662 -21.1937
536.903 -10.2032 -21.3018
537.843 -10.3401 -21.4098
538.784 -10.4771 -21.5178
539.724 -10.6141 -21.6259
540.665 -10.7511 -21.7339
541.605 -10.8881 -21.842
534.125 -9.76743 -20.9244
535.109 -9.87965 -20.9791
536.093 -9.99186 -21.0339
537.077 -10.1041 -21.0887
538.061 -10.2163 -21.1434
539.046 -10.3285 -21.1982
540.03 -10.4407 -21.253
541.014 -10.5529 -21.3077
541.998 -10.6651 -21.3625
532.882 -9.68275 -20.971
532.622 -9.71028 -21.0725
532.363 -9.73781 -21.1739
532.104 -9.76534 -21.2753
531.844 -9.79287 -21.3768
531.585 -9.8204 -21.4782
531.326 -9.84793 -21.5796
531.066 -9.87546 -21.681
530.807 -9.90299 -21.7825
532.388 -9.75479 -21.2048
532.137 -9.78797 -21.3165
531.886 -9.82116 -21.4282
531.636 -9.85435 -21.54
531.385 -9.88754 -21.6517
531.134 -9.92072 -21.7634
530.883 -9.95391 -21.8751
532.656 -9.73291 -21.1136
532.414 -9.77176 -21.2357
532.171 -9.8106 -21.3577
531.929 -9.84945 -21.4797
531.686 -9.88829 -21.6017
531.444 -9.92714 -21.7237
531.201 -9.96598 -21.8458
530.959 -10.0048 -21.9678
532.907 -9.69973 -21.0019
532.205 -9.83323 -21.3989
531.971 -9.87774 -21.5312
531.737 -9.92224 -21.6635
531.503 -9.96674 -21.7958
531.269 -10.0112 -21.9281
531.035 -10.0557 -22.0604
532.915 -9.70538 -21.0122
532.464 -9.8057 -21.2974
532.239 -9.85586 -21.44
532.013 -9.90602 -21.5826
531.788 -9.95618 -21.7253
531.562 -10.0063 -21.8679
531.337 -10.0565 -22.0105
531.111 -10.1067 -22.1531
532.707 -9.76686 -21.1754
532.49 -9.82268 -21.3283
532.056 -9.93431 -21.6341
531.838 -9.99013 -21.787
531.621 -10.0459 -21.9399
531.404 -10.1018 -22.0928
531.187 -10.1576 -22.2457
532.515 -9.83965 -21.3592
532.306 -9.90112 -21.5224
531.889 -10.0241 -21.8488
531.681 -10.0855 -22.012
531.472 -10.147 -22.1752
531.263 -10.2085 -22.3384
532.741 -9.78949 -21.2166
532.14 -9.99089 -21.7371
531.94 -10.058 -21.9106
531.74 -10.1251 -22.0841
531.54 -10.1923 -22.2576
531.339 -10.2594 -22.4311
532.757 -9.8008 -21.2372
532.566 -9.87359 -21.421
532.374 -9.94638 -21.6048
532.182 -10.0192 -21.7885
531.799 -10.1648 -22.1561
531.607 -10.2375 -22.3399
531.415 -10.3103 -22.5237
532.408 -9.96901 -21.6459
532.225 -10.0475 -21.84
532.041 -10.1259 -22.0341
531.858 -10.2044 -22.2282
531.675 -10.2828 -22.4223
531.492 -10.3612 -22.6164
532.616 -9.90754 -21.4827
531.917 -10.244 -22.3003
531.742 -10.3281 -22.5046
531.568 -10.4122 -22.709
533.067 -9.31689 -20.0964
533.03 -9.14773 -19.7098
532.992 -8.97856 -19.3232
532.955 -8.8094 -18.9365
532.918 -8.64023 -18.5499
532.881 -8.47107 -18.1633
532.844 -8.3019 -17.7767
532.807 -8.13274 -17.3901
533.061 -9.49572 -20.5132
532.98 -9.33622 -20.1567
532.9 -9.17671 -19.8003
532.82 -9.01721 -19.4438
532.739 -8.8577 -19.0874
532.659 -8.6982 -18.7309
532.579 -8.5387 -18.3745
532.499 -8.37919 -18.0181
532.418 -8.21969 -17.6616
533.017 -9.50538 -20.5433
532.894 -9.35554 -20.2171
532.771 -9.2057 -19.8908
532.647 -9.05585 -19.5645
532.524 -8.90601 -19.2382
532.4 -8.75617 -18.912
532.277 -8.60633 -18.5857
532.153 -8.45649 -18.2594
532.03 -8.30664 -17.9331
532.974 -9.51504 -20.5735
532.808 -9.37486 -20.2774
532.641 -9.23468 -19.9813
532.474 -9.0945 -19.6852
532.308 -8.95432 -19.3891
532.141 -8.81414 -19.093
531.975 -8.67396 -18.7969
531.808 -8.53378 -18.5008
531.641 -8.3936 -18.2047
532.931 -9.5247 -20.6037
532.721 -9.39419 -20.3377
532.512 -9.26367 -20.0718
532.302 -9.13315 -19.8059
532.092 -9.00263 -19.5399
531.882 -8.87211 -19.274
531.673 -8.74159 -19.0081
531.463 -8.61107 -18.7421
531.253 -8.48055 -18.4762
532.888 -9.53437 -20.6338
532.635 -9.41351 -20.3981
532.382 -9.29265 -20.1623
532.129 -9.17179 -19.9265
531.876 -9.05094 -19.6908
531.623 -8.93008 -19.455
531.37 -8.80922 -19.2192
531.118 -8.68836 -18.9835
530.865 -8.56751 -18.7477
532.549 -9.43283 -20.4584
532.253 -9.32164 -20.2528
531.957 -9.21044 -20.0472
531.66 -9.09924 -19.8416
531.364 -8.98805 -19.636
531.068 -8.87685 -19.4304
530.772 -8.76566 -19.2248
530.476 -8.65446 -19.0192
532.802 -9.55369 -20.6942
532.462 -9.45216 -20.5187
532.123 -9.35062 -20.3433
531.784 -9.24909 -20.1679
531.445 -9.14755 -19.9925
531.105 -9.04602 -19.817
530.766 -8.94448 -19.6416
530.427 -8.84295 -19.4662
530.088 -8.74141 -19.2908
532.759 -9.56335 -20.7243
532.376 -9.47148 -20.5791
531.994 -9.37961 -20.4338
531.611 -9.28773 -20.2886
531.229 -9.19586 -20.1433
530.846 -9.10399 -19.9981
530.464 -9.01211 -19.8528
530.082 -8.92024 -19.7075
529.699 -8.82837 -19.5623
532.29 -9.4908 -20.6394
531.864 -9.40859 -20.5243
531.439 -9.32638 -20.4092
531.013 -9.24417 -20.2942
530.588 -9.16196 -20.1791
530.162 -9.07974 -20.064
529.736 -8.99753 -19.9489
529.311 -8.91532 -19.8338
532.323 -9.51275 -20.6827
531.914 -9.44151 -20.5893
531.505 -9.37028 -20.4959
531.096 -9.29904 -20.4024
530.687 -9.2278 -20.309
530.278 -9.15656 -20.2155
529.869 -9.08533 -20.1221
529.46 -9.01409 -20.0287
532.356 -9.5347 -20.726
531.964 -9.47443 -20.6542
531.572 -9.41417 -20.5825
531.179 -9.35391 -20.5107
530.787 -9.29365 -20.4389
530.395 -9.23338 -20.3671
530.002 -9.17312 -20.2953
529.61 -9.11286 -20.2235
532.765 -9.60594 -20.8195
532.014 -9.50736 -20.7192
531.638 -9.45807 -20.6691
531.262 -9.40878 -20.6189
530.887 -9.35949 -20.5688
530.511 -9.3102 -20.5187
530.135 -9.26091 -20.4685
529.76 -9.21162 -20.4184
532.423 -9.57859 -20.8126
531.705 -9.50196 -20.7557
531.346 -9.46365 -20.7272
530.986 -9.42534 -20.6987
530.627 -9.38702 -20.6702
530.268 -9.34871 -20.6418
529.909 -9.31039 -20.6133
532.456 -9.60054 -20.8559
532.114 -9.5732 -20.8491
531.771 -9.54586 -20.8423
531.429 -9.51852 -20.8355
531.086 -9.49118 -20.8286
530.744 -9.46384 -20.8218
530.401 -9.4365 -20.815
530.059 -9.40916 -20.8081
532.815 -9.63886 -20.8844
532.163 -9.60612 -20.9141
531.838 -9.58976 -20.9289
531.512 -9.57339 -20.9437
531.186 -9.55702 -20.9585
530.86 -9.54066 -20.9734
530.534 -9.52429 -20.9882
530.208 -9.50792 -21.003
532.522 -9.64444 -20.9425
532.213 -9.63905 -20.979
531.904 -9.63365 -21.0155
531.595 -9.62826 -21.052
531.286 -9.62287 -21.0884
530.976 -9.61748 -21.1249
530.667 -9.61208 -21.1614
530.358 -9.60669 -21.1979
532.263 -9.67197 -21.044
531.971 -9.67755 -21.1021
531.678 -9.68313 -21.1602
531.385 -9.68871 -21.2184
531.093 -9.6943 -21.2765
530.8 -9.69988 -21.3346
530.508 -9.70546 -21.3927
532.589 -9.68834 -21.0292
532.037 -9.72145 -21.1887
531.761 -9.738 -21.2685
531.485 -9.75456 -21.3483
531.209 -9.77111 -21.428
530.933 -9.78767 -21.5078
530.657 -9.80423 -21.5876
532.983 -9.75122 -21.0942
532.825 -9.84721 -21.3187
532.667 -9.94321 -21.5433
532.509 -10.0392 -21.7678
532.351 -10.1352 -21.9924
532.193 -10.2312 -22.217
532.035 -10.3272 -22.4415
531.877 -10.4232 -22.6661
531.719 -10.5192 -22.8906
533 -9.76311 -21.1143
532.717 -9.97888 -21.6038
532.576 -10.0868 -21.8486
532.435 -10.1947 -22.0933
532.293 -10.3025 -22.3381
532.152 -10.4104 -22.5828
532.011 -10.5183 -22.8275
531.869 -10.6262 -23.0723
532.892 -9.89478 -21.3994
532.767 -10.0146 -21.6644
532.643 -10.1343 -21.9293
532.518 -10.2541 -22.1942
532.394 -10.3739 -22.4591
532.269 -10.4937 -22.7241
532.145 -10.6134 -22.989
532.02 -10.7332 -23.2539
532.925 -9.91856 -21.4398
532.818 -10.0502 -21.7249
532.71 -10.1819 -22.01
532.602 -10.3136 -22.2951
532.494 -10.4452 -22.5802
532.387 -10.5769 -22.8653
532.279 -10.7086 -23.1504
532.171 -10.8402 -23.4355
532.777 -10.2295 -22.0907
532.686 -10.373 -22.396
532.595 -10.5166 -22.7013
532.504 -10.6601 -23.0066
532.413 -10.8037 -23.3119
532.322 -10.9472 -23.6172
533.067 -9.81067 -21.1951
532.992 -9.96612 -21.5205
532.918 -10.1216 -21.846
532.844 -10.277 -22.1715
532.77 -10.4325 -22.4969
532.696 -10.5879 -22.8224
532.621 -10.7434 -23.1479
532.547 -10.8988 -23.4733
532.473 -11.0543 -23.7988
533.083 -9.82256 -21.2152
533.026 -9.9899 -21.5609
532.969 -10.1572 -21.9065
532.911 -10.3246 -22.2522
532.854 -10.4919 -22.5978
532.796 -10.6593 -22.9435
532.739 -10.8266 -23.2891
532.681 -10.9939 -23.6348
532.624 -11.1613 -23.9804
533.06 -10.0137 -21.6013
533.019 -10.1929 -21.9671
532.978 -10.3721 -22.3329
532.937 -10.5514 -22.6987
532.897 -10.7306 -23.0646
532.856 -10.9098 -23.4304
532.815 -11.0891 -23.7962
532.775 -11.2683 -24.1621
533.069 -10.2286 -22.0276
533.045 -10.4197 -22.4136
533.021 -10.6108 -22.7997
532.997 -10.8019 -23.1857
532.973 -10.9931 -23.5717
532.95 -11.1842 -23.9577
532.926 -11.3753 -24.3437
526.285 -4.7184 -7.69556
525.619 -4.64699 -7.41335
524.953 -4.57558 -7.13114
524.287 -4.50417 -6.84893
523.621 -4.43276 -6.56672
522.955 -4.36135 -6.28451
522.289 -4.28994 -6.00229
521.623 -4.21853 -5.72008
520.958 -4.14712 -5.43787
520.292 -4.07571 -5.15566
524.962 -4.60342 -7.25222
524.301 -4.54592 -7.03055
523.64 -4.48843 -6.80888
522.978 -4.43094 -6.58721
522.317 -4.37345 -6.36555
521.656 -4.31595 -6.14388
520.994 -4.25846 -5.92221
520.333 -4.20097 -5.70054
519.672 -4.14347 -5.47887
525.628 -4.67483 -7.53443
524.971 -4.63125 -7.3733
524.315 -4.58767 -7.21218
523.658 -4.5441 -7.05105
523.001 -4.50052 -6.88992
522.344 -4.45695 -6.7288
521.688 -4.41337 -6.56767
521.031 -4.36979 -6.40654
520.374 -4.32622 -6.24542
519.717 -4.28264 -6.08429
524.98 -4.65908 -7.49439
524.328 -4.62943 -7.3938
523.676 -4.59977 -7.29322
523.024 -4.57011 -7.19263
522.372 -4.54045 -7.09205
521.72 -4.51079 -6.99146
521.067 -4.48113 -6.89088
520.415 -4.45147 -6.7903
519.763 -4.42181 -6.68971
525.637 -4.70266 -7.65551
524.99 -4.68692 -7.61547
524.342 -4.67118 -7.57543
523.694 -4.65543 -7.53539
523.047 -4.63969 -7.49534
522.399 -4.62395 -7.4553
521.752 -4.60821 -7.41526
521.104 -4.59247 -7.37522
520.456 -4.57672 -7.33517
519.809 -4.56098 -7.29513
525.642 -4.71658 -7.71606
524.999 -4.71475 -7.73656
524.356 -4.71293 -7.75706
523.713 -4.7111 -7.77755
523.07 -4.70928 -7.79805
522.427 -4.70745 -7.81855
521.784 -4.70563 -7.83905
521.141 -4.7038 -7.85955
520.498 -4.70198 -7.88005
519.855 -4.70015 -7.90055
525.008 -4.74259 -7.85764
524.369 -4.75468 -7.93868
523.731 -4.76677 -8.01972
523.093 -4.77886 -8.10076
522.454 -4.79095 -8.1818
521.816 -4.80304 -8.26285
521.177 -4.81514 -8.34389
520.539 -4.82723 -8.42493
519.9 -4.83932 -8.50597
525.651 -4.74441 -7.83714
525.017 -4.77042 -7.97872
524.383 -4.79643 -8.12031
523.749 -4.82244 -8.26189
523.115 -4.84845 -8.40347
522.482 -4.87445 -8.54506
521.848 -4.90046 -8.68664
521.214 -4.92647 -8.82822
520.58 -4.95248 -8.9698
519.946 -4.97849 -9.11139
525.026 -4.79825 -8.09981
524.397 -4.83818 -8.30193
523.768 -4.8781 -8.50406
523.138 -4.91803 -8.70618
522.509 -4.95796 -8.90831
521.88 -4.99788 -9.11043
521.251 -5.03781 -9.31256
520.621 -5.07773 -9.51468
519.992 -5.11766 -9.71681
525.66 -4.77225 -7.95822
525.035 -4.82609 -8.22089
524.411 -4.87993 -8.48356
523.786 -4.93377 -8.74623
523.161 -4.98761 -9.00889
522.537 -5.04146 -9.27156
521.912 -5.0953 -9.53423
521.287 -5.14914 -9.79689
520.662 -5.20298 -10.0596
520.038 -5.25683 -10.3222
525.665 -4.78616 -8.01877
525.045 -4.85392 -8.34198
524.424 -4.92168 -8.66518
523.804 -4.98944 -8.98839
523.184 -5.0572 -9.3116
522.564 -5.12496 -9.63481
521.944 -5.19272 -9.95802
521.324 -5.26048 -10.2812
520.704 -5.32824 -10.6044
526.382 -4.61865 -7.20843
526.48 -4.51889 -6.72131
526.577 -4.41914 -6.23419
526.675 -4.31938 -5.74707
526.772 -4.21963 -5.25994
526.87 -4.11988 -4.77282
526.967 -4.02012 -4.2857
527.064 -3.92037 -3.79858
527.162 -3.82061 -3.31145
526.573 -4.32273 -5.77428
526.645 -4.22381 -5.29396
526.717 -4.12489 -4.81365
526.789 -4.02597 -4.33333
526.861 -3.92705 -3.85301
526.933 -3.82813 -3.37269
526.378 -4.52224 -6.74853
526.424 -4.42415 -6.27501
526.471 -4.32607 -5.8015
526.517 -4.22799 -5.32799
526.564 -4.12991 -4.85447
526.61 -4.03182 -4.38096
526.657 -3.93374 -3.90744
526.704 -3.83566 -3.43393
526.348 -4.42666 -6.29543
526.369 -4.32941 -5.82872
526.39 -4.23217 -5.36201
526.411 -4.13492 -4.8953
526.432 -4.03767 -4.42859
526.453 -3.94043 -3.96188
526.474 -3.84318 -3.49517
526.28 -4.62199 -7.23565
526.276 -4.52558 -6.77575
526.272 -4.42917 -6.31584
526.267 -4.33276 -5.85593
526.263 -4.23635 -5.39603
526.258 -4.13994 -4.93612
526.254 -4.04352 -4.47622
526.25 -3.94711 -4.01631
526.245 -3.8507 -3.5564
526.195 -4.43168 -6.33625
526.165 -4.3361 -5.88315
526.135 -4.24053 -5.43005
526.106 -4.14495 -4.97695
526.076 -4.04938 -4.52384
526.046 -3.9538 -4.07074
526.016 -3.85823 -3.61764
526.174 -4.52892 -6.80296
526.063 -4.33945 -5.91037
526.008 -4.24471 -5.46407
525.953 -4.14997 -5.01777
525.897 -4.05523 -4.57147
525.842 -3.96049 -4.12518
525.787 -3.86575 -3.67888
526.042 -4.43669 -6.37708
525.962 -4.34279 -5.93758
525.881 -4.24889 -5.49809
525.8 -4.15498 -5.0586
525.719 -4.06108 -4.6191
525.638 -3.96717 -4.17961
525.558 -3.87327 -3.74012
526.179 -4.62534 -7.26287
526.072 -4.53227 -6.83018
525.966 -4.4392 -6.39749
525.86 -4.34613 -5.9648
525.753 -4.25306 -5.53211
525.647 -4.16 -5.09942
525.541 -4.06693 -4.66673
525.435 -3.97386 -4.23404
525.328 -3.88079 -3.80135
525.89 -4.44171 -6.4179
525.758 -4.34948 -5.99202
525.626 -4.25724 -5.56613
525.494 -4.16501 -5.14025
525.363 -4.07278 -4.71436
525.231 -3.98055 -4.28848
525.099 -3.88832 -3.86259
525.97 -4.53561 -6.8574
525.656 -4.35282 -6.01923
525.499 -4.26142 -5.60015
525.342 -4.17003 -5.18107
525.184 -4.07863 -4.76199
525.027 -3.98724 -4.34291
524.87 -3.89584 -3.92383
526.077 -4.62901 -7.29016
525.869 -4.53961 -6.88477
525.661 -4.45021 -6.47938
525.453 -4.36081 -6.07398
525.244 -4.27142 -5.66859
525.036 -4.18202 -5.26319
524.828 -4.09262 -4.8578
524.62 -4.00322 -4.45241
524.412 -3.91383 -4.04701
526.026 -4.631 -7.30385
525.767 -4.54361 -6.91214
525.508 -4.45621 -6.52044
525.249 -4.36881 -6.12873
524.99 -4.28141 -5.73702
524.731 -4.19401 -5.34532
524.472 -4.10661 -4.95361
524.213 -4.01921 -4.5619
523.954 -3.93181 -4.1702
525.975 -4.633 -7.31754
525.665 -4.5476 -6.93952
525.355 -4.4622 -6.5615
525.046 -4.3768 -6.18348
524.736 -4.2914 -5.80546
524.426 -4.206 -5.42744
524.116 -4.1206 -5.04942
523.806 -4.0352 -4.6714
523.497 -3.9498 -4.29338
525.563 -4.5516 -6.96689
525.203 -4.4682 -6.60256
524.842 -4.3848 -6.23823
524.481 -4.3014 -5.87389
524.121 -4.21799 -5.50956
523.76 -4.13459 -5.14523
523.399 -4.05119 -4.7809
523.039 -3.96779 -4.41656
525.873 -4.637 -7.34491
525.462 -4.5556 -6.99427
525.05 -4.47419 -6.64362
524.639 -4.39279 -6.29297
524.227 -4.31139 -5.94233
523.816 -4.22999 -5.59168
523.404 -4.14858 -5.24104
522.992 -4.06718 -4.89039
522.581 -3.98578 -4.53975
525.36 -4.55959 -7.02164
524.898 -4.48019 -6.68468
524.435 -4.40079 -6.34772
523.973 -4.32138 -6.01076
523.51 -4.24198 -5.67381
523.048 -4.16257 -5.33685
522.585 -4.08317 -4.99989
522.123 -4.00376 -4.66293
525.772 -4.641 -7.37229
525.258 -4.56359 -7.04901
524.745 -4.48619 -6.72574
524.232 -4.40878 -6.40247
523.718 -4.33137 -6.0792
523.205 -4.25397 -5.75593
522.692 -4.17656 -5.43266
522.178 -4.09916 -5.10938
521.665 -4.02175 -4.78611
525.156 -4.56759 -7.07639
524.592 -4.49218 -6.7668
524.028 -4.41677 -6.45722
523.464 -4.34137 -6.14763
522.9 -4.26596 -5.83805
522.336 -4.19055 -5.52847
521.772 -4.11515 -5.21888
521.207 -4.03974 -4.9093
525.67 -4.64499 -7.39966
525.055 -4.57159 -7.10376
524.44 -4.49818 -6.80786
523.825 -4.42477 -6.51197
523.21 -4.35136 -6.21607
522.595 -4.27795 -5.92017
521.98 -4.20454 -5.62427
521.365 -4.13114 -5.32838
520.75 -4.05773 -5.03248
525.742 -4.79105 -8.02754
525.2 -4.8637 -8.35952
524.657 -4.93635 -8.6915
524.114 -5.009 -9.02348
523.572 -5.08165 -9.35546
523.029 -5.1543 -9.68743
522.486 -5.22695 -10.0194
521.944 -5.2996 -10.3514
521.401 -5.37224 -10.6834
525.82 -4.79594 -8.03631
525.355 -4.87348 -8.37706
524.889 -4.95102 -8.71781
524.424 -5.02856 -9.05856
523.959 -5.1061 -9.39931
523.494 -5.18364 -9.74006
523.029 -5.26118 -10.0808
522.564 -5.33871 -10.4216
522.098 -5.41625 -10.7623
525.897 -4.80083 -8.04508
525.51 -4.88326 -8.3946
525.122 -4.96569 -8.74412
524.734 -5.04812 -9.09364
524.347 -5.13055 -9.44316
523.959 -5.21298 -9.79268
523.571 -5.29541 -10.1422
523.184 -5.37783 -10.4917
522.796 -5.46026 -10.8412
525.975 -4.80572 -8.05385
525.664 -4.89304 -8.41214
525.354 -4.98036 -8.77043
525.044 -5.06768 -9.12872
524.734 -5.155 -9.48702
524.424 -5.24232 -9.84531
524.114 -5.32963 -10.2036
523.804 -5.41695 -10.5619
523.493 -5.50427 -10.9202
526.052 -4.81061 -8.06262
525.819 -4.90282 -8.42968
525.587 -4.99503 -8.79674
525.354 -5.08724 -9.16381
525.121 -5.17945 -9.53087
524.889 -5.27166 -9.89793
524.656 -5.36386 -10.265
524.423 -5.45607 -10.6321
524.191 -5.54828 -10.9991
526.13 -4.8155 -8.07139
525.974 -4.9126 -8.44722
525.819 -5.0097 -8.82306
525.664 -5.1068 -9.19889
525.509 -5.2039 -9.57472
525.354 -5.301 -9.95056
525.199 -5.39809 -10.3264
525.043 -5.49519 -10.7022
524.888 -5.59229 -11.0781
526.207 -4.82039 -8.08016
526.129 -4.92238 -8.46477
526.052 -5.02437 -8.84937
525.974 -5.12636 -9.23397
525.896 -5.22835 -9.61858
525.819 -5.33033 -10.0032
525.741 -5.43232 -10.3878
525.663 -5.53431 -10.7724
525.586 -5.6363 -11.157
526.284 -4.93216 -8.48231
526.284 -5.03904 -8.87568
526.284 -5.14592 -9.26906
526.284 -5.2528 -9.66243
526.284 -5.35967 -10.0558
526.283 -5.46655 -10.4492
526.283 -5.57343 -10.8426
526.283 -5.68031 -11.2359
526.362 -4.83017 -8.0977
526.439 -4.94194 -8.49985
526.517 -5.05371 -8.90199
526.594 -5.16548 -9.30414
526.671 -5.27725 -9.70628
526.749 -5.38901 -10.1084
526.826 -5.50078 -10.5106
526.903 -5.61255 -10.9127
526.981 -5.72432 -11.3149
526.44 -4.83506 -8.10647
526.594 -4.95172 -8.51739
526.749 -5.06838 -8.92831
526.904 -5.18504 -9.33922
527.059 -5.30169 -9.75014
527.214 -5.41835 -10.1611
527.368 -5.53501 -10.572
527.523 -5.65167 -10.9829
527.678 -5.76833 -11.3938
527.549 -4.6685 -7.3465
527.422 -4.67349 -7.3814
527.296 -4.67848 -7.41631
527.17 -4.68347 -7.45122
527.043 -4.68846 -7.48612
526.917 -4.69345 -7.52103
526.79 -4.69844 -7.55593
526.664 -4.70343 -7.59084
526.538 -4.70842 -7.62575
526.411 -4.71341 -7.66065
527.438 -4.68516 -7.4225
527.327 -4.70181 -7.49849
527.216 -4.71847 -7.57449
527.105 -4.73512 -7.65049
526.994 -4.75178 -7.72649
526.883 -4.76844 -7.80248
526.772 -4.78509 -7.87848
526.661 -4.80175 -7.95448
526.551 -4.81841 -8.03048
527.358 -4.72514 -7.58068
527.263 -4.75347 -7.69777
527.167 -4.78179 -7.81486
527.072 -4.81011 -7.93194
526.976 -4.83843 -8.04903
526.881 -4.86675 -8.16612
526.785 -4.89508 -8.28321
526.69 -4.9234 -8.4003
527.389 -4.74848 -7.66286
527.309 -4.78846 -7.82104
527.229 -4.82845 -7.97922
527.149 -4.86844 -8.1374
527.069 -4.90843 -8.29558
526.989 -4.94841 -8.45376
526.909 -4.9884 -8.61194
526.829 -5.02839 -8.77013
527.42 -4.77181 -7.74504
527.355 -4.82346 -7.94432
527.291 -4.87511 -8.14359
527.226 -4.92677 -8.34286
527.162 -4.97842 -8.54213
527.097 -5.03008 -8.74141
527.033 -5.08173 -8.94068
526.968 -5.13338 -9.13995
527.5 -4.73182 -7.58686
527.451 -4.79514 -7.82723
527.402 -4.85846 -8.06759
527.353 -4.92178 -8.30795
527.304 -4.9851 -8.54832
527.255 -5.04842 -8.78868
527.206 -5.11174 -9.02905
527.157 -5.17506 -9.26941
527.108 -5.23838 -9.50977
527.515 -4.74349 -7.62795
527.482 -4.81847 -7.90941
527.448 -4.89346 -8.19087
527.415 -4.96844 -8.47232
527.381 -5.04343 -8.75378
527.348 -5.11841 -9.03523
527.314 -5.1934 -9.31669
527.281 -5.26838 -9.59814
527.247 -5.34337 -9.8796
527.513 -4.8418 -7.99159
527.495 -4.92845 -8.31414
527.477 -5.0151 -8.63669
527.459 -5.10176 -8.95923
527.441 -5.18841 -9.28178
527.423 -5.27506 -9.60433
527.404 -5.36171 -9.92688
527.386 -5.44836 -10.2494
527.546 -4.76682 -7.71014
527.544 -4.86513 -8.07378
527.541 -4.96345 -8.43742
527.539 -5.06177 -8.80105
527.536 -5.16009 -9.16469
527.533 -5.2584 -9.52833
527.531 -5.35672 -9.89197
527.528 -5.45504 -10.2556
527.526 -5.55335 -10.6192
527.575 -4.88847 -8.15596
527.588 -4.99845 -8.56069
527.6 -5.10843 -8.96542
527.613 -5.21841 -9.37015
527.626 -5.3284 -9.77488
527.639 -5.43838 -10.1796
527.652 -5.54836 -10.5843
527.665 -5.65835 -10.9891
527.606 -4.9118 -8.23814
527.634 -5.03345 -8.68396
527.662 -5.15509 -9.12979
527.691 -5.27674 -9.57561
527.719 -5.39839 -10.0214
527.748 -5.52004 -10.4673
527.776 -5.64169 -10.9131
527.804 -5.76334 -11.3589
527.52 -4.57374 -6.89428
527.491 -4.47897 -6.44207
527.462 -4.38421 -5.98985
527.433 -4.28944 -5.53763
527.404 -4.19468 -5.08541
527.375 -4.09991 -4.6332
527.346 -4.00515 -4.18098
527.317 -3.91039 -3.72876
527.288 -3.81562 -3.27655
527.51 -4.58371 -6.94299
527.471 -4.49892 -6.53949
527.433 -4.41413 -6.13599
527.394 -4.32934 -5.73248
527.355 -4.24456 -5.32898
527.317 -4.15977 -4.92547
527.278 -4.07498 -4.52197
527.239 -3.99019 -4.11846
527.201 -3.9054 -3.71496
527.452 -4.51887 -6.63691
527.404 -4.44406 -6.28212
527.355 -4.36925 -5.92733
527.307 -4.29443 -5.57254
527.258 -4.21962 -5.21775
527.21 -4.14481 -4.86295
527.161 -4.06999 -4.50816
527.113 -3.99518 -4.15337
527.491 -4.60366 -7.04042
527.432 -4.53882 -6.73434
527.374 -4.47399 -6.42826
527.316 -4.40915 -6.12218
527.258 -4.34431 -5.8161
527.2 -4.27947 -5.51002
527.142 -4.21463 -5.20394
527.083 -4.1498 -4.89786
527.025 -4.08496 -4.59178
527.413 -4.55877 -6.83176
527.345 -4.50391 -6.5744
527.277 -4.44905 -6.31703
527.209 -4.39419 -6.05966
527.141 -4.33932 -5.80229
527.073 -4.28446 -5.54492
527.005 -4.2296 -5.28756
526.937 -4.17474 -5.03019
527.471 -4.62361 -7.13784
527.393 -4.57873 -6.92919
527.316 -4.53384 -6.72053
527.238 -4.48895 -6.51188
527.16 -4.44406 -6.30322
527.083 -4.39918 -6.09457
527.005 -4.35429 -5.88591
526.927 -4.3094 -5.67725
526.85 -4.26452 -5.4686
527.374 -4.59868 -7.02661
527.287 -4.56377 -6.86667
527.199 -4.52885 -6.70673
527.112 -4.49394 -6.54678
527.024 -4.45903 -6.38684
526.937 -4.42412 -6.2269
526.849 -4.38921 -6.06695
526.762 -4.3543 -5.90701
527.452 -4.64356 -7.23527
527.355 -4.61863 -7.12404
527.257 -4.59369 -7.01281
527.16 -4.56876 -6.90158
527.063 -4.54382 -6.79034
526.966 -4.51888 -6.67911
526.869 -4.49395 -6.56788
526.772 -4.46901 -6.45665
526.674 -4.44407 -6.34542
527.335 -4.63858 -7.22146
527.228 -4.62362 -7.15894
527.121 -4.60866 -7.09642
527.014 -4.5937 -7.03391
526.907 -4.57874 -6.97139
526.8 -4.56378 -6.90887
526.694 -4.54881 -6.84635
526.587 -4.53385 -6.78383
527.316 -4.65853 -7.31889
527.199 -4.65354 -7.30508
527.082 -4.64856 -7.29127
526.966 -4.64357 -7.27747
526.849 -4.63859 -7.26366
526.732 -4.6336 -7.24985
526.616 -4.62862 -7.23605
526.499 -4.62363 -7.22224
534.208 -6.16915 -11.8004
533.571 -6.14073 -11.8008
532.933 -6.11231 -11.8013
532.296 -6.0839 -11.8017
531.658 -6.05548 -11.8021
531.021 -6.02707 -11.8026
530.383 -5.99865 -11.803
529.745 -5.97023 -11.8034
529.108 -5.94182 -11.8039
528.47 -5.9134 -11.8043
532.301 -6.10961 -11.8806
531.665 -6.08976 -11.9073
531.029 -6.06991 -11.934
530.393 -6.05007 -11.9608
529.757 -6.03022 -11.9875
529.121 -6.01037 -12.0142
528.485 -5.99053 -12.0409
532.94 -6.14659 -11.9064
532.306 -6.13531 -11.9595
531.671 -6.12404 -12.0125
531.037 -6.11276 -12.0655
530.403 -6.10148 -12.1185
529.769 -6.0902 -12.1716
529.134 -6.07893 -12.2246
528.5 -6.06765 -12.2776
532.311 -6.16102 -12.0384
531.678 -6.15831 -12.1177
531.045 -6.1556 -12.197
530.413 -6.1529 -12.2763
529.78 -6.15019 -12.3556
529.148 -6.14748 -12.4349
528.515 -6.14477 -12.5143
533.578 -6.17501 -11.906
532.947 -6.18087 -12.0116
532.316 -6.18673 -12.1172
531.685 -6.19259 -12.2229
531.054 -6.19845 -12.3285
530.423 -6.20431 -12.4341
529.792 -6.21017 -12.5397
529.161 -6.21603 -12.6453
528.53 -6.22189 -12.7509
532.321 -6.21244 -12.1961
531.691 -6.22687 -12.328
531.062 -6.2413 -12.4599
530.433 -6.25573 -12.5919
529.803 -6.27016 -12.7238
529.174 -6.28459 -12.8557
528.545 -6.29902 -12.9876
532.953 -6.21514 -12.1168
532.326 -6.23814 -12.275
531.698 -6.26114 -12.4332
531.07 -6.28414 -12.5914
530.443 -6.30714 -12.7496
529.815 -6.33014 -12.9078
529.187 -6.35314 -13.066
528.56 -6.37614 -13.2242
533.583 -6.20071 -11.9849
532.331 -6.26385 -12.3539
531.705 -6.29542 -12.5384
531.079 -6.32699 -12.7229
530.453 -6.35856 -12.9074
529.827 -6.39013 -13.0919
529.201 -6.42169 -13.2764
528.575 -6.45326 -13.4609
533.584 -6.20928 -12.0112
532.96 -6.24942 -12.222
532.336 -6.28956 -12.4328
531.711 -6.3297 -12.6436
531.087 -6.36983 -12.8544
530.463 -6.40997 -13.0652
529.838 -6.45011 -13.276
529.214 -6.49025 -13.4868
528.59 -6.53038 -13.6975
532.341 -6.31527 -12.5117
531.718 -6.36397 -12.7488
531.095 -6.41268 -12.9858
530.473 -6.46139 -13.2229
529.85 -6.51009 -13.46
529.227 -6.5588 -13.6971
528.605 -6.60751 -13.9342
532.966 -6.2837 -12.3272
531.724 -6.39825 -12.8539
531.103 -6.45553 -13.1173
530.482 -6.5128 -13.3807
529.861 -6.57008 -13.6441
529.24 -6.62735 -13.9075
528.619 -6.68463 -14.1709
533.64 -6.23767 -12.0865
533.071 -6.3062 -12.3725
532.502 -6.37473 -12.6586
531.933 -6.44325 -12.9446
531.364 -6.51178 -13.2307
530.795 -6.58031 -13.5168
530.226 -6.64883 -13.8028
529.657 -6.71736 -14.0889
529.088 -6.78588 -14.3749
533.692 -6.24892 -12.1091
533.175 -6.3287 -12.4179
532.658 -6.40848 -12.7266
532.141 -6.48825 -13.0353
531.624 -6.56803 -13.3441
531.107 -6.64781 -13.6528
530.59 -6.72758 -13.9616
530.073 -6.80736 -14.2703
529.556 -6.88714 -14.579
533.744 -6.26017 -12.1318
533.279 -6.3512 -12.4632
532.814 -6.44223 -12.7946
532.349 -6.53326 -13.126
531.884 -6.62428 -13.4575
531.419 -6.71531 -13.7889
530.954 -6.80634 -14.1203
530.489 -6.89737 -14.4517
530.024 -6.98839 -14.7831
533.383 -6.3737 -12.5086
532.97 -6.47598 -12.8627
532.557 -6.57826 -13.2167
532.144 -6.68054 -13.5708
531.731 -6.78281 -13.9249
531.318 -6.88509 -14.279
530.905 -6.98737 -14.6331
530.492 -7.08965 -14.9872
533.848 -6.28267 -12.1772
533.487 -6.3962 -12.5539
533.126 -6.50973 -12.9307
532.765 -6.62326 -13.3075
532.404 -6.73679 -13.6842
532.043 -6.85032 -14.061
531.682 -6.96384 -14.4377
531.322 -7.07737 -14.8145
530.961 -7.1909 -15.1913
533.591 -6.4187 -12.5993
533.282 -6.54348 -12.9987
532.973 -6.66826 -13.3982
532.664 -6.79304 -13.7976
532.355 -6.91782 -14.197
532.047 -7.0426 -14.5965
531.738 -7.16738 -14.9959
531.429 -7.29216 -15.3953
533.952 -6.30518 -12.2225
533.695 -6.44121 -12.6446
533.438 -6.57723 -13.0667
533.181 -6.71326 -13.4889
532.924 -6.84929 -13.911
532.668 -6.98532 -14.3331
532.411 -7.12135 -14.7552
532.154 -7.25738 -15.1773
531.897 -7.39341 -15.5994
534.004 -6.31643 -12.2452
533.799 -6.46371 -12.69
533.594 -6.61099 -13.1348
533.389 -6.75827 -13.5796
533.185 -6.90555 -14.0243
532.98 -7.05283 -14.4691
532.775 -7.20011 -14.9139
532.57 -7.34738 -15.3587
532.365 -7.49466 -15.8035
533.903 -6.48621 -12.7353
533.75 -6.64474 -13.2028
533.597 -6.80327 -13.6703
533.445 -6.9618 -14.1377
533.292 -7.12033 -14.6052
533.139 -7.27886 -15.0727
532.986 -7.43739 -15.5401
532.834 -7.59592 -16.0076
534.108 -6.33893 -12.2905
534.007 -6.50871 -12.7807
533.906 -6.67849 -13.2708
533.806 -6.84827 -13.761
533.705 -7.01805 -14.2511
533.604 -7.18783 -14.7412
533.503 -7.35761 -15.2314
533.403 -7.52739 -15.7215
533.302 -7.69717 -16.2117
533.543 -6.01908 -11.355
532.877 -5.86902 -10.9096
532.211 -5.71895 -10.4642
531.545 -5.56889 -10.0188
530.879 -5.41882 -9.57345
530.213 -5.26876 -9.12806
529.547 -5.11869 -8.68267
528.881 -4.96863 -8.23728
528.215 -4.81856 -7.79189
532.219 -5.75545 -10.598
531.556 -5.61755 -10.1972
530.893 -5.47965 -9.79636
530.23 -5.34175 -9.39555
529.567 -5.20385 -8.99474
528.903 -5.06595 -8.59394
528.24 -4.92805 -8.19313
533.548 -6.04341 -11.4442
532.888 -5.91768 -11.0879
532.228 -5.79194 -10.7317
531.567 -5.66621 -10.3755
530.907 -5.54047 -10.0193
530.247 -5.41474 -9.66305
529.586 -5.289 -9.30682
528.926 -5.16327 -8.95059
528.266 -5.03753 -8.59437
532.894 -5.94201 -11.1771
532.236 -5.82844 -10.8655
531.579 -5.71487 -10.5538
530.921 -5.6013 -10.2422
530.264 -5.48773 -9.93054
529.606 -5.37416 -9.6189
528.949 -5.26059 -9.30725
528.291 -5.14702 -8.99561
533.554 -6.06774 -11.5333
532.899 -5.96634 -11.2663
532.245 -5.86493 -10.9992
531.59 -5.76353 -10.7322
530.935 -5.66212 -10.4651
530.281 -5.56072 -10.198
529.626 -5.45931 -9.93097
528.972 -5.35791 -9.66391
528.317 -5.2565 -9.39685
532.905 -5.99067 -11.3554
532.253 -5.90143 -11.133
531.601 -5.81219 -10.9105
530.95 -5.72295 -10.688
530.298 -5.6337 -10.4655
529.646 -5.54446 -10.243
528.994 -5.45522 -10.0206
528.343 -5.36598 -9.79809
533.56 -6.09207 -11.6225
532.911 -6.015 -11.4446
532.262 -5.93792 -11.2667
531.613 -5.86084 -11.0888
530.964 -5.78377 -10.9109
530.315 -5.70669 -10.733
529.666 -5.62962 -10.5551
529.017 -5.55254 -10.3772
528.368 -5.47547 -10.1993
533.562 -6.10424 -11.6671
532.916 -6.03933 -11.5338
532.27 -5.97441 -11.4005
531.624 -5.9095 -11.2671
530.978 -5.84459 -11.1338
530.332 -5.77968 -11.0005
529.686 -5.71477 -10.8672
529.04 -5.64986 -10.7339
528.394 -5.58495 -10.6006
533.565 -6.1164 -11.7117
532.922 -6.06366 -11.6229
532.279 -6.01091 -11.5342
531.635 -5.95816 -11.4455
530.992 -5.90542 -11.3567
530.349 -5.85267 -11.268
529.706 -5.79993 -11.1793
529.062 -5.74718 -11.0905
528.419 -5.69444 -11.0018
532.928 -6.08798 -11.7121
532.287 -6.0474 -11.668
531.647 -6.00682 -11.6238
531.006 -5.96624 -11.5796
530.366 -5.92566 -11.5355
529.726 -5.88508 -11.4913
529.085 -5.8445 -11.4472
528.445 -5.80392 -11.403
534.31 -6.03123 -11.3027
534.412 -5.89332 -10.8049
534.513 -5.7554 -10.3072
534.615 -5.61749 -9.80945
534.717 -5.47957 -9.31172
534.818 -5.34166 -8.81398
534.92 -5.20374 -8.31624
535.022 -5.06582 -7.8185
535.123 -4.92791 -7.32077
534.233 -6.03002 -11.3079
534.258 -5.89089 -10.8154
534.283 -5.75176 -10.3229
534.308 -5.61263 -9.83039
534.333 -5.4735 -9.33789
534.358 -5.33437 -8.84539
534.383 -5.19524 -8.35288
534.408 -5.05611 -7.86038
534.433 -4.91697 -7.36788
534.458 -4.77784 -6.87538
534.157 -6.0288 -11.3131
534.105 -5.88846 -10.8259
534.053 -5.74811 -10.3386
534.001 -5.60777 -9.85133
533.949 -5.46742 -9.36406
533.897 -5.32708 -8.87679
