-0.449177 3.96823 0.165948
-0.43405 3.97 0.0137485
-0.622753 3.97685 -0.0189374
-1.98106 3.56145 -0.200675
-1.84743 3.66118 -0.238844
-2.0777 3.48692 -0.287802
-1.98902 3.55272 -0.169278
-2.1249 3.43158 -0.104136
-2.05876 3.48939 -0.0616182
-1.92786 3.59507 -0.0965006
-2.02514 3.5171 -0.0407661
-1.84787 3.64954 -0.0766414
-1.90829 3.60581 -0.00852579
-0.756125 3.97204 0.0658547
-0.717248 3.97594 -0.0351932
-0.811617 3.97198 -0.0513991
-0.728492 3.9723 0.12457
-1.44304 3.85928 0.503742
-1.34507 3.88181 0.298811
-1.5379 3.81207 0.260011
-1.36817 3.88487 0.520178
-1.24136 3.91041 0.320326
-1.2901 3.90805 0.538066
-1.95805 3.59405 0.839722
-1.90448 3.62902 0.661736
-2.04083 3.523 0.613171
-2.09243 3.48283 0.794971
-0.650686 3.97498 0.311386
-0.742511 3.97341 0.303688
-0.46371 3.97081 0.324181
-1.9835 3.57238 0.935702
-2.1166 3.45899 0.891634
-2.13098 3.44178 0.95738
-2.00561 3.54778 1.03475
-2.14248 3.42529 1.01693
-2.01949 3.52601 1.11536
-2.1581 3.39466 1.12001
-2.03004 3.49653 1.21612
-2.16633 3.36555 1.20932
-0.894754 3.97262 1.04865
-1.07131 3.95866 1.0374
-1.07751 3.95089 1.1215
-1.06443 3.96358 0.936412
-0.885319 3.97949 0.924697
-0.900938 3.96443 1.12919
-2.10197 3.13388 1.65465
-2.2119 3.08862 1.57637
-2.21618 3.00653 1.63715
-0.909248 3.94991 1.22341
-1.08684 3.93481 1.22673
-2.1192 3.04399 1.7005
-2.21517 2.92399 1.69073
-2.08798 3.08504 1.69963
-2.13252 2.95457 1.74014
-0.917605 3.93151 1.30659
-1.09732 3.91376 1.31631
-2.14728 2.85928 1.77434
-2.21249 2.83662 1.73802
-2.18227 2.78233 1.78269
-2.2939 2.70922 1.72906
-2.24445 2.64075 1.79249
-1.10114 3.90594 1.34267
-2.12375 2.81293 1.80737
-2.17057 2.69495 1.82096
-1.98167 3.05868 1.78369
-1.10528 3.89745 1.36848
-2.13261 2.71971 1.83443
-2.00975 2.96809 1.80944
-2.09739 2.76765 1.83777
-0.931096 3.89725 1.4152
-1.11384 3.87933 1.41629
-2.03896 2.87443 1.83101
-2.18395 2.56527 1.85166
-2.11284 2.48397 1.90465
-2.03247 2.58595 1.91604
-1.95169 2.68655 1.92437
-2.08054 2.6474 1.88107
-0.709743 3.58348 1.80937
-0.587928 3.57248 1.80733
-0.710964 3.61534 1.78718
-0.827947 3.55969 1.82487
-0.767063 3.5091 1.85435
-0.765323 3.48123 1.86871
-0.863312 3.47967 1.86724
-0.764953 3.4093 1.90181
-0.653198 3.48383 1.86553
-0.597944 3.43677 1.88721
-0.60435 3.33541 1.93
-0.763754 3.31505 1.9385
-1.72372 3.72871 -0.159178
-1.59414 3.79486 -0.18967
-1.72488 3.73218 -0.214581
-2.08468 3.46575 0.0653685
-2.19857 3.36344 0.153948
-1.76753 3.69549 0.0605061
-1.99223 3.54329 0.171198
-1.56403 3.79902 0.0336118
-1.45496 3.84899 -0.163999
-1.69505 3.73562 0.0933715
-1.72727 3.71825 0.129004
-1.49492 3.82716 0.0468166
-1.30714 3.89421 -0.137453
-2.00527 3.53609 0.270221
-1.75138 3.70587 0.211608
-2.18066 3.39098 0.424867
-2.2977 3.2755 0.503592
-1.32437 3.88413 0.0793295
-1.15058 3.93012 -0.109917
-2.01708 3.53163 0.384506
-1.19451 3.917 0.104063
-1.67139 3.75247 0.320473
-1.8004 3.68288 0.377438
-2.17169 3.40473 0.560314
-1.92291 3.60807 0.497101
-0.996596 3.95139 0.103461
-0.985314 3.95621 -0.0812704
-1.59667 3.79119 0.382653
-2.24709 3.33213 0.665415
-2.34518 3.22463 0.69294
-2.19675 3.38297 0.650628
-2.14569 3.4317 0.638862
-1.91683 3.61519 0.552027
-1.62595 3.78053 0.4439
-1.72135 3.73573 0.518509
-1.00315 3.95108 0.196541
-0.912891 3.96103 0.17356
-2.22124 3.35917 0.745862
-0.990226 3.95319 0.226593
-2.27818 3.29781 0.79341
-2.36668 3.19624 0.790903
-1.68122 3.76081 0.588573
-2.18685 3.39354 0.794835
-2.24406 3.33302 0.843162
-0.997525 3.95439 0.316379
-2.29649 3.27296 0.880405
-2.38526 3.16623 0.887811
-2.26073 3.30984 0.924637
-2.31372 3.24348 0.976789
-2.3981 3.1399 0.967148
-2.2706 3.29319 0.980881
-2.2772 3.28044 1.02069
-1.16564 3.93806 0.568848
-1.03774 3.9604 0.596942
-1.01073 3.95594 0.409739
-2.32381 3.22071 1.04597
-2.40829 3.11211 1.04532
-2.23811 3.31988 1.05428
-1.41581 3.88003 0.737055
-2.28824 3.25182 1.10768
-2.33223 3.19333 1.12453
-2.41485 3.0862 1.11329
-2.24556 3.30101 1.11234
-1.844 3.67216 0.976451
-1.8179 3.69157 0.885314
-1.47656 3.86131 0.834897
-1.51329 3.84696 0.826135
-1.13325 3.94957 0.692421
-1.85636 3.66087 1.025
-0.762203 3.97978 0.531489
-1.77188 3.71675 0.994968
-1.18025 3.94248 0.739574
-2.33821 3.15919 1.21208
-2.42027 3.03275 1.23972
-0.620083 3.97976 0.495361
-0.493846 3.97755 0.684053
-2.297 3.20741 1.22741
-1.78455 3.70582 1.04292
-1.79047 3.69993 1.06784
-1.87478 3.63866 1.11518
-1.31764 3.91315 0.878208
-1.79975 3.68901 1.113
-0.963531 3.97441 0.762383
-2.26782 3.20179 1.32991
-2.34939 3.0756 1.35739
-2.41044 2.95049 1.40313
-0.997659 3.97191 0.82078
-1.80942 3.67145 1.18438
-0.810567 3.98351 0.739087
-2.3136 3.10882 1.38633
-2.04699 3.45321 1.30706
-2.34523 3.04621 1.41117
-1.24362 3.92758 1.04379
-1.98443 3.49059 1.35367
-0.692254 3.98451 0.806465
-2.34105 2.98329 1.49421
-2.39325 2.89398 1.49725
-1.24736 3.92197 1.10501
-1.32719 3.90627 1.04497
-1.33229 3.89671 1.1364
-2.19632 3.1612 1.52464
-0.509869 3.97282 0.887794
-2.3045 2.99557 1.53831
-0.70017 3.9819 0.908259
-2.36806 2.83527 1.5822
-2.27601 3.00135 1.572
-1.25638 3.90558 1.21353
-1.33854 3.88513 1.20488
-2.0702 3.20639 1.6264
-2.06978 3.28707 1.54847
-0.770729 3.97712 1.01235
-0.642366 3.97703 0.958676
-0.522924 3.95874 1.05652
-1.26127 3.89685 1.25329
-2.29361 2.88399 1.63802
-2.00396 3.34431 1.55839
-2.30775 2.84798 1.64535
-2.33498 2.77386 1.65917
-2.06463 3.18137 1.65167
-1.58725 3.71637 1.43508
-1.57597 3.75162 1.36627
-1.62116 3.72873 1.36738
-1.61722 3.70075 1.4357
-1.27169 3.87971 1.31433
-1.9893 3.29055 1.62646
-1.48634 3.7869 1.37917
-0.714659 3.96767 1.09498
-1.36736 3.82267 1.40187
-1.94783 3.33037 1.6257
-1.46904 3.76156 1.45328
-0.780849 3.96281 1.14756
-0.653322 3.96286 1.10704
-0.528577 3.94861 1.12955
-1.7361 3.5282 1.58963
-1.78026 3.49318 1.59564
-0.785619 3.95397 1.20297
-2.00758 3.17167 1.70346
-1.94728 3.15472 1.7527
-0.534155 3.93566 1.20121
-1.60346 3.58566 1.61405
-1.60143 3.62714 1.56615
-1.64605 3.5944 1.57628
-1.5738 3.60198 1.61368
-1.55704 3.64326 1.57514
-1.58166 3.58017 1.63254
-0.663648 3.94181 1.23208
-0.794831 3.93251 1.30252
-1.61705 3.4913 1.69641
-0.732293 3.93043 1.29959
-1.47511 3.63596 1.63019
-1.46883 3.67448 1.58899
-1.49814 3.54396 1.70628
-0.544129 3.90392 1.3275
-0.802178 3.91231 1.37233
-1.48488 3.59245 1.66929
-1.39445 3.66281 1.63933
-1.37446 3.70635 1.59832
-1.12487 3.81802 1.53919
-1.25143 3.79916 1.52241
-1.12419 3.75044 1.63412
-1.89465 3.06267 1.82574
-1.93569 2.9722 1.84409
-1.06621 3.83277 1.52998
-0.945706 3.85517 1.50905
-0.806949 3.89766 1.41428
-1.97839 2.87886 1.85854
-1.37872 3.58071 1.72151
-0.740964 3.905 1.3851
-0.674597 3.91011 1.35441
-0.548682 3.88521 1.38394
-1.25116 3.73249 1.61766
-1.9977 2.78577 1.87956
-0.74362 3.89506 1.41284
-1.89774 2.9722 1.86069
-1.27402 3.69191 1.65537
-0.679349 3.89337 1.40377
-0.553193 3.86372 1.43887
-1.8784 2.77601 1.92891
-1.80432 2.86452 1.93034
-1.73961 2.94019 1.92886
-1.50032 3.44298 1.77897
-1.79273 3.04961 1.8732
-1.67402 3.01527 1.92465
-0.819108 3.85741 1.50626
-1.745 3.10413 1.86905
-1.5284 3.37022 1.81359
-0.754386 3.85535 1.50376
-1.4989 3.3869 1.81335
-1.42945 3.46275 1.7891
-1.58412 3.27838 1.84456
-1.61582 3.31783 1.81349
-1.38918 3.47397 1.79381
-0.68949 3.85203 1.49939
-0.561584 3.81511 1.53777
-1.51608 3.18913 1.90303
-1.42153 3.20849 1.91655
-1.42231 3.40685 1.82418
-1.3171 3.49322 1.80086
-1.39174 3.41464 1.82788
-1.32718 3.22664 1.92703
-0.696661 3.81872 1.56078
-0.569481 3.75782 1.62599
-1.28298 3.44207 1.83795
-0.701349 3.79113 1.60441
-0.765727 3.80456 1.59256
-1.32115 3.36868 1.86748
-1.23293 3.24368 1.9347
-1.09721 3.55791 1.80347
-1.0047 3.6395 1.75924
-1.11035 3.63134 1.75026
-0.83925 3.75962 1.65665
-1.23756 3.38724 1.87399
-1.13871 3.25971 1.93976
-0.89486 3.6578 1.75432
-0.925063 3.6996 1.7165
-0.947121 3.61588 1.78216
-1.17133 3.40109 1.87762
-1.03053 3.27696 1.94265
-1.07951 3.47436 1.85342
-0.622835 3.68316 1.72147
-0.580689 3.65455 1.74091
-0.894547 3.39043 1.90639
-0.922171 3.29313 1.94274
-0.949123 3.38323 1.90669
-1.87395 3.62937 0.193081
-1.84943 3.6472 0.254529
-1.90434 3.61286 0.32501
-1.94233 3.5867 0.345162
-1.82361 3.6752 0.50896
-1.11723 3.935 0.27458
-1.12092 3.9357 0.319505
-1.79472 3.6991 0.62662
-1.56398 3.81418 0.547606
-1.7468 3.72958 0.676752
-1.64865 3.78539 0.775212
-1.53169 3.83094 0.60702
-1.77899 3.71263 0.720374
-0.88784 3.97093 0.47169
-1.63723 3.79234 0.836992
-1.29965 3.91487 0.739578
-0.901511 3.97352 0.565418
-0.772003 3.98286 0.645353
-0.906494 3.97525 0.622415
-1.61304 3.80319 0.95948
-1.5226 3.84349 0.935066
-1.69825 3.75759 1.01499
-1.49784 3.85324 0.941357
-1.57178 3.80837 1.13933
-2.21868 3.28725 1.27087
-2.1879 3.27804 1.37211
-1.18905 3.94334 0.852658
-1.72091 3.73757 1.10114
-1.68286 3.75801 1.10493
-1.44857 3.86937 1.01178
-1.19297 3.94268 0.908821
-2.13782 3.36117 1.3123
-1.96786 3.53962 1.25326
-0.634394 3.98352 0.665854
-2.10519 3.34762 1.41206
-1.21024 3.93851 0.954114
-2.26122 3.16166 1.41516
-2.2194 3.21826 1.41049
-1.45274 3.85952 1.1186
-1.86945 3.60172 1.29769
-1.90849 3.56628 1.31691
-1.85012 3.57243 1.40564
-1.67061 3.74324 1.23283
-1.83449 3.62355 1.30597
-1.76345 3.66471 1.32165
-1.71779 3.70568 1.27784
-2.19396 3.22374 1.44982
-1.73318 3.69241 1.29257
-2.03152 3.41762 1.41732
-1.59906 3.77435 1.25538
-1.46137 3.84453 1.20148
-1.99388 3.45082 1.41932
-1.53178 3.80371 1.26137
-2.03587 3.38212 1.46937
-1.73543 3.64052 1.42204
-1.96227 3.38361 1.55744
-1.94117 3.40271 1.55678
-1.85698 3.48321 1.54143
-1.84093 3.39152 1.6519
-1.58859 3.68998 1.48309
-1.52254 3.70257 1.51549
-1.36414 3.79789 1.46039
-1.98412 3.21384 1.6914
-1.4861 3.7159 1.5207
-1.26634 3.84061 1.43211
-1.78743 3.33477 1.72867
-1.80451 3.41014 1.66001
-1.78616 3.41914 1.66396
-1.89671 3.27893 1.70433
-1.70029 3.49588 1.6473
-1.67806 3.51306 1.64418
-1.84008 3.21642 1.77553
-1.88373 3.1305 1.7994
-1.67568 3.38631 1.74794
-1.78521 3.24444 1.78595
-1.61867 3.40954 1.75669
-1.59748 3.42842 1.75251
-0.936472 3.76156 1.65089
-1.69248 3.16434 1.86207
-1.59587 3.10253 1.91599
-1.63883 3.22238 1.85389
-1.1538 3.69111 1.69023
-0.894859 3.81271 1.58471
-1.05573 3.71524 1.68618
-1.20797 3.58321 1.76675
-0.868859 3.71274 1.70689
-0.770218 3.71513 1.7038
-0.778218 3.69443 1.72434
-0.971258 3.55572 1.81922
-1.05728 3.38072 1.89982
