546.73 -5.14077 -6.79985
538.732 -4.30664 -4.65971
537.145 -5.79664 -10.3508
552.252 -4.03117 -2.03528
540.303 -3.23888 1.12917
551.502 -4.7942 -5.02099
545.673 -6.37055 -10.7487
550.723 -5.68978 -8.04954
542.491 -16.9712 -31.5563
530.08 -16.4027 -33.1657
528.852 -18.7161 -36.639
527.603 -21.1585 -40.0152
543.659 -14.6273 -27.8662
549.538 -15.4467 -28.0624
548.703 -17.2346 -30.7735
547.828 -19.1664 -33.5071
565.759 -22.2308 -33.8187
612.56 -1.38191 9.77117
620.802 0.467443 16.9852
606.053 -0.626457 14.1478
604.807 -2.35046 6.49185
615.036 -1.21189 10.2303
619.983 -0.853186 11.1496
612.115 -2.16279 6.92085
604.17 -3.47651 2.74992
611.667 -3.06027 4.07663
614.457 -2.29332 6.42444
619.167 -2.60578 5.42861
613.88 -3.57463 2.66098
618.346 -4.77846 -0.141035
607.493 -15.5157 -19.2612
615.744 -13.8273 -15.9748
608.145 -13.1581 -15.997
614.796 -17.6685 -20.9051
614.186 -20.2293 -23.8373
603.852 -14.5682 -18.4922
603.343 -16.3475 -20.876
602.812 -18.2275 -23.2284
589.64 -22.6914 -30.1272
613.558 -22.9083 -26.6582
539.762 -8.17248 -16.3493
535.49 -7.75393 -16.0945
533.769 -10.1719 -21.8228
559.358 -3.54151 0.677129
567.143 -2.49517 6.49254
556.498 -4.18853 -2.26305
558.988 -3.89572 -0.8748
541.044 -10.076 -20.2844
546.714 -8.41707 -15.7728
544.678 -10.0101 -19.5263
538.683 -12.2773 -24.8746
531.972 -13.0517 -27.5141
561.444 -5.32248 -5.66978
547.242 -9.5875 -18.237
550.139 -9.87335 -18.3616
558.538 -7.3433 -11.5366
566.799 -5.11416 -4.48419
548 -11.3667 -21.5907
577.799 -3.08506 3.62881
591.297 -1.4868 11.2693
555.589 -9.72765 -17.2328
566.479 -9.38578 -14.9916
569.495 -5.43521 -5.18612
570.978 -3.92809 -0.105557
583.188 -3.4987 2.17377
558.084 -12.3134 -21.6435
560.614 -15.266 -25.8962
597.687 -2.2798 7.00379
554.629 -18.158 -30.9448
600.057 -2.30115 6.83602
557.599 -18.6328 -31.0279
595.321 -4.03555 0.83314
557.191 -19.6137 -32.3369
597.401 -5.99849 -4.24671
598.103 -6.75407 -5.91018
590.516 -8.87501 -10.9742
599.52 -8.41548 -9.18415
601.863 -5.73397 -3.32203
605.149 -4.81191 -0.888575
605.644 -5.56256 -2.68263
608.4 -4.88861 -0.918935
606.751 -5.89184 -3.36592
579.318 -19.0749 -27.8181
574.213 -17.4352 -26.6132
597.934 -10.4233 -12.9625
592.253 -11.9971 -16.2113
597.133 -11.4893 -14.8106
586.024 -17.4655 -24.7751
610.321 -6.34758 -4.11032
601.673 -11.2774 -13.9428
615.68 -5.31791 -1.51429
603.806 -10.6262 -12.6497
616.57 -5.13787 -1.05779
617.508 -7.3794 -5.58286
603.823 -11.8801 -14.6343
608.397 -9.53595 -10.3318
612.864 -10.1584 -10.8973
616.645 -10.3926 -10.8568
596.806 -18.5259 -24.4492
598.992 -17.7986 -23.268
564.305 -3.69769 0.347675
566.962 -3.59323 0.958648
568.299 -3.70001 0.604738
574.565 -4.26437 -1.05671
574.919 -6.14853 -6.59225
576.364 -4.44781 -1.53365
567.997 -7.26174 -10.1542
578.644 -4.12817 -0.303243
585.588 -4.92587 -2.29446
570.309 -6.88745 -8.97363
588.464 -2.95189 4.39578
590.893 -4.29238 -0.126446
591.096 -2.67522 5.51255
563.574 -12.1709 -20.5483
566.148 -15.1551 -24.8208
593.294 -2.54774 6.00989
579.831 -6.64453 -7.30605
566.318 -12.0947 -20.0017
569.026 -11.7519 -19.011
582.296 -6.90501 -7.66751
578.958 -9.16722 -12.8837
572.353 -10.8767 -16.9916
571.606 -14.4404 -22.8925
568.073 -12.8454 -20.9765
588.991 -5.85662 -4.52547
585.022 -7.51996 -8.774
588.032 -6.72114 -6.68692
575.311 -11.6902 -17.9754
582.463 -12.9568 -19.0074
590.704 -6.36991 -5.63503
563.176 -18.5703 -29.9588
592.937 -6.24974 -5.17179
565.964 -18.5348 -29.4265
568.718 -18.1721 -28.4904
580.91 -15.9021 -23.5091
589.166 -14.6513 -20.5746
591.991 -16.5273 -22.695
605.29 -8.12306 -8.08623
607.57 -7.60963 -6.89354
606.323 -8.57805 -8.83977
596.05 -15.1681 -20.3373
598.067 -14.4896 -19.1431
611.586 -8.14618 -7.54958
599.995 -14.5163 -18.9257
590.819 -19.5005 -26.4845
572.529 -7.83197 -10.9139
571.324 -8.74694 -13.0357
573.645 -8.33832 -11.8756
575.412 -8.60711 -12.2117
582.152 -9.76074 -13.6193
583.754 -10.0679 -13.9871
586.013 -9.67217 -12.9867
